ply
format ascii 1.0
element vertex 1608
property float x
property float y
property float z
end_header
0.180384 -1.298989 -2.298995
0.170664 -1.301352 -2.260065
0.160881 -1.300453 -2.279546
0.181556 -1.300960 -2.263316
0.132359 -1.301426 -2.272017
0.151108 -1.300098 -2.289292
0.160860 -1.299366 -2.299016
0.170590 -1.297547 -2.328212
0.141440 -1.295359 -2.377463
0.160797 -1.296104 -2.357428
0.121937 -1.296823 -2.358014
0.171699 -1.296255 -2.350944
0.141283 -1.297024 -2.347714
0.150878 -1.297957 -2.327689
0.209554 -1.292444 -2.406052
0.190218 -1.292787 -2.406616
0.239007 -1.290758 -2.426034
0.258521 -1.289837 -2.435748
0.209742 -1.292410 -2.406595
0.238819 -1.290792 -2.425491
0.220446 -1.292052 -2.409303
0.258353 -1.290959 -2.415734
0.220582 -1.289299 -2.458523
0.190951 -1.291563 -2.428262
0.229067 -1.291524 -2.415766
0.209512 -1.290269 -2.444993
0.229088 -1.292611 -2.396295
0.228962 -1.286087 -2.513118
0.189914 -1.286840 -2.513160
0.219242 -1.288450 -2.474188
0.199687 -1.287196 -2.503415
0.160890 -1.291177 -2.445589
0.160901 -1.291721 -2.435853
0.181178 -1.291208 -2.438007
0.151118 -1.290822 -2.455335
0.160712 -1.291755 -2.435310
0.151149 -1.292453 -2.426129
0.180414 -1.290800 -2.445568
0.141178 -1.291588 -2.445066
0.122062 -1.293527 -2.416969
0.180467 -1.293519 -2.396892
0.131594 -1.291198 -2.455356
0.170694 -1.293163 -2.406637
0.161853 -1.292094 -2.428837
0.161361 -1.286182 -2.534837
0.180194 -1.289203 -2.474230
0.151275 -1.289157 -2.485084
0.150866 -1.287594 -2.513202
-0.023364 -1.289624 -2.537212
0.043957 -1.304310 -2.251010
0.102508 -1.302093 -2.270417
0.053656 -1.300860 -2.309411
0.082984 -1.302469 -2.270438
0.092557 -1.302315 -2.269884
0.063449 -1.302302 -2.280195
0.102466 -1.299918 -2.309358
0.082942 -1.300295 -2.309380
0.102309 -1.301583 -2.279609
0.092767 -1.303368 -2.250957
0.053425 -1.298719 -2.347808
0.073326 -1.298274 -2.348875
0.103522 -1.295908 -2.380767
0.074289 -1.299192 -2.332123
0.083098 -1.298630 -2.339129
-0.024576 -1.305119 -2.260275
0.034163 -1.302867 -2.280226
0.034383 -1.304464 -2.251564
0.005997 -1.302685 -2.293255
-0.014678 -1.302178 -2.309485
-0.004853 -1.305252 -2.251063
0.004898 -1.304520 -2.260787
0.014608 -1.301613 -2.309453
0.025521 -1.302308 -2.293234
0.004689 -1.303466 -2.279714
0.014524 -1.297264 -2.387335
-0.004791 -1.298694 -2.368429
0.015664 -1.297603 -2.380862
-0.004801 -1.298150 -2.378165
0.033891 -1.298552 -2.357565
-0.013601 -1.299255 -2.361423
0.073252 -1.294469 -2.417022
0.083014 -1.294281 -2.417011
0.082815 -1.293771 -2.426203
0.043789 -1.295611 -2.406774
0.073273 -1.295556 -2.397551
0.053299 -1.292195 -2.464631
0.103480 -1.293734 -2.419708
0.053728 -1.294845 -2.417042
0.074194 -1.294299 -2.419740
0.073001 -1.291241 -2.474889
0.092525 -1.290864 -2.474868
0.043861 -1.289597 -2.514405
0.064180 -1.291259 -2.477618
0.072990 -1.290697 -2.484625
0.073126 -1.287945 -2.533844
0.064170 -1.290715 -2.487353
-0.014637 -1.294533 -2.446322
-0.004708 -1.293223 -2.466326
0.014816 -1.292846 -2.466305
-0.024556 -1.296386 -2.416583
0.004730 -1.295821 -2.416551
0.024223 -1.293813 -2.445736
0.024254 -1.295444 -2.416530
-0.013706 -1.293819 -2.458776
0.033974 -1.293081 -2.455461
0.024400 -1.293236 -2.456015
0.034141 -1.291960 -2.475475
-0.014889 -1.291305 -2.504190
0.004845 -1.291981 -2.485242
-0.024452 -1.292003 -2.495009
0.238870 -1.283690 -2.552593
0.199613 -1.283390 -2.571561
0.248601 -1.281871 -2.581788
0.258321 -1.279508 -2.620718
0.229014 -1.278986 -2.640220
0.229547 -1.277253 -2.671057
0.220005 -1.279038 -2.642406
0.258823 -1.276144 -2.680761
0.170662 -1.281712 -2.611621
0.141376 -1.282277 -2.611653
0.150824 -1.285419 -2.552144
0.122061 -1.283707 -2.592747
0.151190 -1.284807 -2.562966
0.131802 -1.282432 -2.612207
0.141041 -1.284520 -2.571625
0.170296 -1.282324 -2.600799
0.151305 -1.280968 -2.631656
0.151075 -1.278827 -2.670054
0.160868 -1.280270 -2.640838
0.180371 -1.278806 -2.660287
0.160837 -1.278639 -2.670043
0.190091 -1.276443 -2.699218
0.219189 -1.275912 -2.698642
0.248443 -1.273716 -2.727817
0.209520 -1.271173 -2.786814
0.189954 -1.269375 -2.825776
0.219471 -1.270951 -2.787347
0.229379 -1.268554 -2.826821
0.209541 -1.272261 -2.767343
0.199748 -1.270818 -2.796560
0.239392 -1.271594 -2.768943
0.160752 -1.274289 -2.747925
0.121768 -1.278305 -2.689556
0.121631 -1.271237 -2.816114
0.141176 -1.271948 -2.796623
0.180569 -1.269496 -2.826874
0.074423 -1.286619 -2.557121
0.074360 -1.283358 -2.615532
0.082856 -1.286126 -2.563040
0.102548 -1.284628 -2.583033
0.102747 -1.285137 -2.573841
0.063134 -1.285993 -2.572252
0.092126 -1.280025 -2.669030
0.053131 -1.283497 -2.620395
0.063039 -1.281100 -2.659870
0.053068 -1.280235 -2.678807
0.043149 -1.282088 -2.649068
0.024295 -1.287799 -2.553368
-0.015182 -1.285902 -2.600999
-0.015078 -1.281519 -2.679424
0.033607 -1.283873 -2.620416
0.014460 -1.284182 -2.621525
0.004687 -1.283826 -2.631271
0.014219 -1.281498 -2.669657
0.043661 -1.279268 -2.699375
0.111807 -1.277983 -2.698758
0.043797 -1.276515 -2.748595
0.053392 -1.277448 -2.728570
0.063321 -1.276139 -2.748574
0.092251 -1.276729 -2.727985
0.062997 -1.278925 -2.698811
0.063154 -1.277260 -2.728560
0.102096 -1.271070 -2.825871
0.092355 -1.272346 -2.806411
0.072821 -1.272179 -2.816167
0.043954 -1.274850 -2.778345
0.112078 -1.272479 -2.797198
0.034024 -1.276160 -2.758341
-0.005326 -1.280787 -2.689149
0.033899 -1.279456 -2.699386
-0.005180 -1.278578 -2.728634
-0.014963 -1.277679 -2.748115
0.033910 -1.280000 -2.689651
0.034088 -1.279422 -2.699929
0.014260 -1.273852 -2.806495
-0.024935 -1.276814 -2.767052
0.014050 -1.272799 -2.825422
0.014249 -1.273309 -2.816230
0.033993 -1.274529 -2.787547
0.033972 -1.273442 -2.807017
0.033826 -1.275650 -2.767533
0.004540 -1.276215 -2.767564
-0.159790 -1.304765 -2.313448
-0.169531 -1.306040 -2.293988
-0.071870 -1.296512 -2.430720
-0.081600 -1.298331 -2.401525
-0.034160 -1.304729 -2.270565
-0.092000 -1.304636 -2.292273
-0.073218 -1.304939 -2.280342
-0.101417 -1.303125 -2.322577
-0.102337 -1.304382 -2.300388
-0.053872 -1.305140 -2.270042
-0.092962 -1.303718 -2.309025
-0.073303 -1.300590 -2.358224
-0.092638 -1.300932 -2.358789
-0.053381 -1.301232 -2.339820
-0.073146 -1.298925 -2.387974
-0.101469 -1.300407 -2.371253
-0.053779 -1.300213 -2.358203
-0.082719 -1.299079 -2.388528
-0.034035 -1.301433 -2.329520
-0.043839 -1.299447 -2.368471
-0.053601 -1.299635 -2.368482
-0.102610 -1.300067 -2.377726
-0.159915 -1.308061 -2.254493
-0.141332 -1.307854 -2.251754
-0.170263 -1.307264 -2.272343
-0.160323 -1.306498 -2.282611
-0.161055 -1.307721 -2.260966
-0.121882 -1.303672 -2.319879
-0.151283 -1.308076 -2.251220
-0.140799 -1.306121 -2.282590
-0.170828 -1.307366 -2.270712
-0.131864 -1.302263 -2.348552
-0.112372 -1.300256 -2.377737
-0.141480 -1.300243 -2.388047
-0.120993 -1.300783 -2.371274
-0.130943 -1.301006 -2.370741
-0.170891 -1.304104 -2.329123
-0.092900 -1.297161 -2.426392
-0.092879 -1.298248 -2.406921
-0.063593 -1.297683 -2.406890
-0.093120 -1.295564 -2.455054
-0.083411 -1.292657 -2.503720
-0.053915 -1.293145 -2.484761
-0.102924 -1.293577 -2.494005
-0.101794 -1.293373 -2.497267
-0.073450 -1.292978 -2.494518
-0.121245 -1.297555 -2.429142
-0.150363 -1.296999 -2.449188
-0.141522 -1.298068 -2.426988
-0.112246 -1.296960 -2.436692
-0.150520 -1.298664 -2.419438
-0.131760 -1.297880 -2.426978
-0.112456 -1.295906 -2.455619
-0.169835 -1.300094 -2.400532
-0.170787 -1.299720 -2.407549
-0.171059 -1.295405 -2.484888
-0.150782 -1.294892 -2.487041
-0.141240 -1.293107 -2.515693
-0.122270 -1.293376 -2.504305
-0.132043 -1.293021 -2.514051
-0.316171 -1.297992 -2.488851
-0.267215 -1.294842 -2.528283
-0.179857 -1.306331 -2.292368
-0.200103 -1.308474 -2.261008
-0.249091 -1.309994 -2.250782
-0.189787 -1.307640 -2.272364
-0.208798 -1.305197 -2.322692
-0.248788 -1.306120 -2.320016
-0.190341 -1.308286 -2.260998
-0.198984 -1.307727 -2.274005
-0.180767 -1.308132 -2.260444
-0.239183 -1.307597 -2.290256
-0.238503 -1.303655 -2.360578
-0.249050 -1.302348 -2.387619
-0.219544 -1.303380 -2.358926
-0.189285 -1.304276 -2.332407
-0.239267 -1.303247 -2.368138
-0.229526 -1.301972 -2.387598
-0.307349 -1.307793 -2.310344
-0.307339 -1.308337 -2.300609
-0.287804 -1.308504 -2.290852
-0.297754 -1.308726 -2.290319
-0.268291 -1.307584 -2.300567
-0.307318 -1.309424 -2.281138
-0.278220 -1.308893 -2.280563
-0.277111 -1.307602 -2.303295
-0.317321 -1.306928 -2.329281
-0.267569 -1.305817 -2.331947
-0.258602 -1.303590 -2.368703
-0.307423 -1.303988 -2.378491
-0.278126 -1.303967 -2.368724
-0.306429 -1.306536 -2.332533
-0.257870 -1.302366 -2.390348
-0.239110 -1.301582 -2.397887
-0.219785 -1.300696 -2.407058
-0.229599 -1.298166 -2.455745
-0.200250 -1.300863 -2.397302
-0.200083 -1.299742 -2.417316
-0.180601 -1.297190 -2.456236
-0.200104 -1.298654 -2.436786
-0.190332 -1.299010 -2.427041
-0.180549 -1.299909 -2.407560
-0.180633 -1.295559 -2.485442
-0.180654 -1.294472 -2.504912
-0.200199 -1.293761 -2.524404
-0.190437 -1.293573 -2.524393
-0.248977 -1.296334 -2.495251
-0.287983 -1.299262 -2.456352
-0.307496 -1.300182 -2.446637
-0.268584 -1.302181 -2.397376
-0.140518 -1.291340 -2.547073
-0.044227 -1.289151 -2.552897
-0.101868 -1.289568 -2.565414
-0.054240 -1.286112 -2.610776
-0.083317 -1.287730 -2.591881
-0.093058 -1.289006 -2.572421
-0.053989 -1.289340 -2.552908
-0.034706 -1.286279 -2.601020
-0.102611 -1.290247 -2.553504
-0.073608 -1.284823 -2.640546
-0.151860 -1.287995 -2.610881
-0.132284 -1.290337 -2.562184
-0.132106 -1.289759 -2.572463
-0.121256 -1.287192 -2.614655
-0.170997 -1.288847 -2.602254
-0.121182 -1.290998 -2.546508
-0.171426 -1.286197 -2.649843
-0.122449 -1.284134 -2.669805
-0.131249 -1.285240 -2.653063
-0.132357 -1.286531 -2.630331
-0.142130 -1.286176 -2.640076
-0.083475 -1.279575 -2.737910
-0.073493 -1.280984 -2.709237
-0.093027 -1.280817 -2.718993
-0.102779 -1.281549 -2.709268
-0.102696 -1.276078 -2.807165
-0.141827 -1.282302 -2.709311
-0.141670 -1.280637 -2.739060
-0.141806 -1.283389 -2.689840
-0.112374 -1.280616 -2.729293
-0.170339 -1.283818 -2.692046
-0.171218 -1.277430 -2.806695
-0.141712 -1.278462 -2.778001
-0.161236 -1.278839 -2.778022
-0.151495 -1.277563 -2.797482
-0.199195 -1.287033 -2.644489
-0.228481 -1.287598 -2.644520
-0.218667 -1.290128 -2.595834
-0.229757 -1.290011 -2.601774
-0.180330 -1.291686 -2.554676
-0.249030 -1.293616 -2.543927
-0.190919 -1.288205 -2.620658
-0.190950 -1.286574 -2.649864
-0.190741 -1.287627 -2.630937
-0.220016 -1.288736 -2.621234
-0.190982 -1.284943 -2.679070
-0.210265 -1.288003 -2.630958
-0.200315 -1.287781 -2.631492
-0.287953 -1.291073 -2.602924
-0.317761 -1.293915 -2.562384
-0.268648 -1.289099 -2.631565
-0.268471 -1.288522 -2.641844
-0.258719 -1.287790 -2.651569
-0.317448 -1.290585 -2.621883
-0.248267 -1.284203 -2.712145
-0.219410 -1.280988 -2.759702
-0.190448 -1.283210 -2.709907
-0.229172 -1.281176 -2.759712
-0.210140 -1.284708 -2.689914
-0.219609 -1.280479 -2.768893
-0.190512 -1.279948 -2.768318
-0.180614 -1.277007 -2.817528
-0.200316 -1.277961 -2.807270
-0.249303 -1.279481 -2.797044
-0.190543 -1.278317 -2.797524
-0.180760 -1.279216 -2.778043
-0.277783 -1.282628 -2.750573
-0.258981 -1.284018 -2.719172
-0.259013 -1.282387 -2.748378
-0.306849 -1.284790 -2.721943
-0.317595 -1.282973 -2.758176
-0.317449 -1.280765 -2.797661
-0.278558 -1.281677 -2.767869
-0.287598 -1.280098 -2.799260
0.189881 -1.265570 -2.893923
0.209781 -1.265125 -2.894989
0.199643 -1.265381 -2.893912
0.258089 -1.267547 -2.834894
0.210012 -1.267266 -2.856591
0.219230 -1.268267 -2.835479
0.218905 -1.261233 -2.961494
0.248599 -1.262231 -2.933344
0.160961 -1.265523 -2.904777
0.180338 -1.267355 -2.865271
0.151063 -1.268464 -2.855567
0.180349 -1.267899 -2.855536
0.160542 -1.263416 -2.942631
0.121651 -1.262505 -2.972422
0.160343 -1.262907 -2.951822
0.121494 -1.264170 -2.942672
0.121473 -1.263082 -2.962143
0.180286 -1.264637 -2.913947
0.131182 -1.260176 -3.010809
0.141164 -1.261584 -2.982136
0.257900 -1.257762 -3.010128
0.248085 -1.255232 -3.058815
0.257983 -1.252291 -3.108025
0.238459 -1.252668 -3.108046
0.229189 -1.258768 -3.002056
0.218841 -1.257971 -3.019906
0.170429 -1.259932 -3.001575
0.170262 -1.261053 -2.981561
0.179971 -1.258147 -3.030227
0.170209 -1.258335 -3.030237
0.228551 -1.255065 -3.068571
0.072726 -1.267286 -2.903784
0.082562 -1.270903 -2.835627
0.092271 -1.267997 -2.884293
0.043681 -1.270535 -2.855683
0.072779 -1.270004 -2.855108
0.102065 -1.269439 -2.855076
0.072936 -1.268339 -2.884857
0.043493 -1.270569 -2.855139
0.072695 -1.265655 -2.932990
0.101939 -1.262915 -2.971899
0.062943 -1.266387 -2.923265
0.082436 -1.264379 -2.952450
0.062954 -1.266930 -2.913530
-0.024705 -1.269135 -2.904433
-0.014556 -1.269422 -2.895775
0.014218 -1.271678 -2.845436
0.023969 -1.270946 -2.855160
0.014207 -1.271134 -2.855171
0.023958 -1.270402 -2.864896
-0.014985 -1.266772 -2.943363
-0.024726 -1.268048 -2.923903
0.004539 -1.266395 -2.943342
-0.015153 -1.267893 -2.923349
0.063131 -1.256533 -3.099587
-0.025093 -1.258839 -3.088859
0.053599 -1.258862 -3.061200
0.053609 -1.259405 -3.051465
0.111470 -1.260586 -3.010286
0.101875 -1.259653 -3.030311
0.169434 -1.247564 -3.223311
0.228529 -1.244157 -3.263820
0.218275 -1.248253 -3.194053
0.247676 -1.243849 -3.262712
0.238217 -1.240163 -3.331956
0.238018 -1.239654 -3.341148
0.228288 -1.241473 -3.311953
0.189323 -1.236756 -3.409891
0.257866 -1.236491 -3.390891
0.238164 -1.237445 -3.380633
0.247539 -1.236781 -3.389270
0.208868 -1.237466 -3.390399
0.218662 -1.238909 -3.361183
0.179687 -1.243468 -3.293078
0.140608 -1.242590 -3.322326
0.131055 -1.243832 -3.303410
0.150548 -1.241824 -3.332595
0.170218 -1.239239 -3.372058
0.179614 -1.239662 -3.361225
0.139833 -1.241639 -3.339622
0.003931 -1.254503 -3.156431
0.013587 -1.248878 -3.253773
-0.025638 -1.250209 -3.243536
0.003846 -1.250154 -3.234313
0.023245 -1.253073 -3.175336
0.033217 -1.253938 -3.156399
0.013714 -1.255402 -3.136950
-0.015751 -1.246725 -3.302480
0.052488 -1.240514 -3.390024
0.003595 -1.246926 -3.292181
-0.025482 -1.248544 -3.273285
0.101759 -1.243853 -3.313177
0.032682 -1.245851 -3.301341
0.052467 -1.239426 -3.409495
-0.015856 -1.241288 -3.399833
-0.093007 -1.272084 -2.875301
-0.034582 -1.273163 -2.835753
-0.054305 -1.273030 -2.844966
-0.083267 -1.270809 -2.894761
-0.102748 -1.273360 -2.855841
-0.054158 -1.270821 -2.884450
-0.034279 -1.269289 -2.904987
-0.034530 -1.266061 -2.962855
-0.073526 -1.269533 -2.914221
-0.063827 -1.266083 -2.972622
-0.044491 -1.265740 -2.972057
-0.102822 -1.269554 -2.923988
-0.112489 -1.274635 -2.836381
-0.151600 -1.272127 -2.894835
-0.112510 -1.273548 -2.855851
-0.151569 -1.273758 -2.865629
-0.122440 -1.274858 -2.835848
-0.151778 -1.272704 -2.884556
-0.122325 -1.271018 -2.904538
-0.151873 -1.267812 -2.972173
-0.112783 -1.269233 -2.933190
-0.132485 -1.270187 -2.922932
-0.142457 -1.259502 -3.117647
-0.074301 -1.258762 -3.107295
-0.122995 -1.265684 -3.000260
-0.171931 -1.260101 -3.117135
-0.317501 -1.278046 -2.846337
-0.190805 -1.274545 -2.865127
-0.200347 -1.276330 -2.836476
-0.229633 -1.276895 -2.836507
-0.200588 -1.273646 -2.884608
-0.200609 -1.272559 -2.904079
-0.220123 -1.273479 -2.894364
-0.200672 -1.269297 -2.962490
-0.220353 -1.271338 -2.932762
-0.249157 -1.277272 -2.836528
-0.249178 -1.276185 -2.855999
-0.268514 -1.276527 -2.856563
-0.249398 -1.274588 -2.884661
-0.288435 -1.275885 -2.874968
-0.249273 -1.271292 -2.943616
-0.288467 -1.274254 -2.904173
-0.220217 -1.268586 -2.981982
-0.239815 -1.265157 -3.050149
-0.200600 -1.263283 -3.070122
-0.200621 -1.262195 -3.089592
-0.191256 -1.260988 -3.107965
-0.210571 -1.262417 -3.089059
-0.249410 -1.264224 -3.070174
-0.259328 -1.266077 -3.040435
-0.298565 -1.266865 -3.039934
-0.298554 -1.267408 -3.030199
-0.317775 -1.263911 -3.099454
-0.269342 -1.263038 -3.098314
-0.269363 -1.261950 -3.117784
-0.298628 -1.263603 -3.098345
-0.084095 -1.257319 -3.136511
-0.074207 -1.253835 -3.195456
-0.054861 -1.254036 -3.185156
-0.035337 -1.253659 -3.185135
-0.064372 -1.257452 -3.127299
-0.074155 -1.256553 -3.146780
-0.093752 -1.253124 -3.214947
-0.064331 -1.249807 -3.264136
-0.084231 -1.250252 -3.263069
-0.084022 -1.251305 -3.244143
-0.035013 -1.250873 -3.234898
-0.054704 -1.252371 -3.214905
-0.074218 -1.253291 -3.205191
-0.044807 -1.249430 -3.264115
-0.054924 -1.250774 -3.243567
-0.162023 -1.257704 -3.156610
-0.161689 -1.255462 -3.196638
-0.123206 -1.254810 -3.194965
-0.122996 -1.255864 -3.176038
-0.152335 -1.253710 -3.224746
-0.171890 -1.252456 -3.253973
-0.093837 -1.248775 -3.292830
-0.074439 -1.241874 -3.409631
-0.064467 -1.242739 -3.390694
-0.113360 -1.249151 -3.292850
-0.074386 -1.244593 -3.360955
-0.064404 -1.246001 -3.332283
-0.064540 -1.248754 -3.283063
-0.035296 -1.246014 -3.321972
-0.093889 -1.246057 -3.341506
-0.152294 -1.246065 -3.361583
-0.171776 -1.248616 -3.322663
-0.162265 -1.245200 -3.380520
-0.171849 -1.244811 -3.390810
-0.191309 -1.258269 -3.156641
-0.249735 -1.257190 -3.196189
-0.181139 -1.259644 -3.128512
-0.181369 -1.257503 -3.166909
-0.210655 -1.258068 -3.166941
-0.220438 -1.257169 -3.186422
-0.249756 -1.256103 -3.215659
-0.200977 -1.253531 -3.244812
-0.220658 -1.255572 -3.215084
-0.210363 -1.253651 -3.245910
-0.240046 -1.253197 -3.264325
-0.249787 -1.254472 -3.244865
-0.191362 -1.255551 -3.205317
-0.279021 -1.257755 -3.196220
-0.279198 -1.258333 -3.185941
-0.317995 -1.262314 -3.128116
-0.308296 -1.258864 -3.186517
-0.259674 -1.257957 -3.185920
-0.269384 -1.260863 -3.137255
-0.318058 -1.259052 -3.186527
-0.308160 -1.256112 -3.235737
-0.250070 -1.249613 -3.331939
-0.191279 -1.250080 -3.303214
-0.220533 -1.252276 -3.274039
-0.201019 -1.251356 -3.283754
-0.181736 -1.248295 -3.331865
-0.201114 -1.246463 -3.371371
-0.210897 -1.245564 -3.390852
-0.269364 -1.252131 -3.293562
-0.269395 -1.250500 -3.322768
-0.288752 -1.249755 -3.342803
-0.317839 -1.250829 -3.333643
-0.259414 -1.251908 -3.294096
-0.269343 -1.253218 -3.274092
-0.308151 -1.246835 -3.401780
-0.259665 -1.248680 -3.351964
-0.317881 -1.248655 -3.372584
-0.259477 -1.248646 -3.352507
-0.279189 -1.249057 -3.351985
-0.354987 -1.310706 -2.274718
-0.355092 -1.305269 -2.372070
-0.442793 -1.305299 -2.401914
-0.433179 -1.297499 -2.538197
-0.442626 -1.304178 -2.421928
-0.356305 -1.310944 -2.270912
-0.395165 -1.311663 -2.271498
-0.355228 -1.308021 -2.322850
-0.356149 -1.309279 -2.300661
-0.395144 -1.312750 -2.252027
-0.346146 -1.311775 -2.252518
-0.336771 -1.311111 -2.261156
-0.346543 -1.310755 -2.270901
-0.336802 -1.309480 -2.290361
-0.365817 -1.304540 -2.388833
-0.385341 -1.304917 -2.388854
-0.356421 -1.304963 -2.378000
-0.375725 -1.306937 -2.349359
-0.374961 -1.307345 -2.341798
-0.375757 -1.305306 -2.378564
-0.375903 -1.307515 -2.339080
-0.346439 -1.306372 -2.349327
-0.346471 -1.304741 -2.378533
-0.355479 -1.304793 -2.380718
-0.443588 -1.313080 -2.262902
-0.444027 -1.309886 -2.320226
-0.434265 -1.309698 -2.320216
-0.404980 -1.309133 -2.320184
-0.462965 -1.311248 -2.302408
-0.404749 -1.311274 -2.281787
-0.414731 -1.309865 -2.310460
-0.424493 -1.310053 -2.310470
-0.434151 -1.305858 -2.388906
-0.443892 -1.307134 -2.369447
-0.414763 -1.308234 -2.339665
-0.404101 -1.305701 -2.381314
-0.376008 -1.302078 -2.436432
-0.385749 -1.303354 -2.416972
-0.355522 -1.302619 -2.419659
-0.365305 -1.301720 -2.439140
-0.395333 -1.302964 -2.427262
-0.395072 -1.296916 -2.535437
-0.326895 -1.297263 -2.505614
-0.395438 -1.297528 -2.524614
-0.395407 -1.299159 -2.495409
-0.336647 -1.297995 -2.495889
-0.375872 -1.299326 -2.485652
-0.335925 -1.296228 -2.527269
-0.345676 -1.296960 -2.517545
-0.404939 -1.301488 -2.457022
-0.463678 -1.303739 -2.437071
-0.444175 -1.302275 -2.456520
-0.414826 -1.304972 -2.398077
-0.463720 -1.301564 -2.476012
-0.444018 -1.300610 -2.486269
-0.463741 -1.300477 -2.495482
-0.444071 -1.297892 -2.534946
-0.424536 -1.298059 -2.525189
-0.424860 -1.300845 -2.475426
-0.434476 -1.298825 -2.514921
-0.424494 -1.300233 -2.486248
-0.608548 -1.309010 -2.392901
-0.540581 -1.308303 -2.382005
-0.559937 -1.307559 -2.402040
-0.482468 -1.312712 -2.282959
-0.482479 -1.312168 -2.292694
-0.492774 -1.314090 -2.261868
-0.511786 -1.311646 -2.312196
-0.531655 -1.313722 -2.281924
-0.483306 -1.308499 -2.358666
-0.580998 -1.316396 -2.251140
-0.570933 -1.312334 -2.320363
-0.580507 -1.312489 -2.320917
-0.590603 -1.314920 -2.280900
-0.580078 -1.315139 -2.273329
-0.600198 -1.313987 -2.300924
-0.580957 -1.308751 -2.387977
-0.570755 -1.311757 -2.330642
-0.590719 -1.308939 -2.387987
-0.590133 -1.309925 -2.370148
-0.580183 -1.309702 -2.370681
-0.610525 -1.314277 -2.299304
-0.571509 -1.311893 -2.328468
-0.521308 -1.304699 -2.439852
-0.531290 -1.303290 -2.468525
-0.511881 -1.306753 -2.399813
-0.492357 -1.306376 -2.399792
-0.472833 -1.306000 -2.399771
-0.522438 -1.304903 -2.436590
-0.542203 -1.302595 -2.484744
-0.532106 -1.300164 -2.524761
-0.492828 -1.301552 -2.486322
-0.590772 -1.306221 -2.436664
-0.551734 -1.304924 -2.446357
-0.571028 -1.307441 -2.407980
-0.550782 -1.305298 -2.439340
-0.561580 -1.300763 -2.524249
-0.552509 -1.303973 -2.463653
-0.423710 -1.291908 -2.634995
-0.394456 -1.289712 -2.664170
-0.453017 -1.291386 -2.654498
-0.366372 -1.295366 -2.553245
-0.327367 -1.292438 -2.592144
-0.327189 -1.291860 -2.602422
-0.366247 -1.292070 -2.612200
-0.395334 -1.293144 -2.603040
-0.356506 -1.290794 -2.631660
-0.346044 -1.287752 -2.682500
-0.336261 -1.288651 -2.663019
-0.355764 -1.290115 -2.643570
-0.385468 -1.288573 -2.681455
-0.355743 -1.291202 -2.624099
-0.395544 -1.292091 -2.621967
-0.444081 -1.297348 -2.544681
-0.414116 -1.292841 -2.614971
-0.434581 -1.293388 -2.612273
-0.415068 -1.292468 -2.621988
-0.434090 -1.289480 -2.682051
-0.385741 -1.284258 -2.758793
-0.385709 -1.285889 -2.729588
-0.375738 -1.286754 -2.710650
-0.346075 -1.286121 -2.711706
-0.365809 -1.285444 -2.730654
-0.385552 -1.284224 -2.759337
-0.356402 -1.286411 -2.710086
-0.366070 -1.281672 -2.798257
-0.375832 -1.281861 -2.798268
-0.356287 -1.282571 -2.778776
-0.365662 -1.283235 -2.770139
-0.385804 -1.280996 -2.817205
-0.365914 -1.280007 -2.828007
-0.336952 -1.282229 -2.778211
-0.327211 -1.280953 -2.797671
-0.443748 -1.285285 -2.760488
-0.443915 -1.286407 -2.740473
-0.405076 -1.284600 -2.759358
-0.424391 -1.286030 -2.740452
-0.414828 -1.285332 -2.749633
-0.404752 -1.281814 -2.809122
-0.414661 -1.284211 -2.769648
-0.453740 -1.283333 -2.798895
-0.424663 -1.281715 -2.817791
-0.608957 -1.297627 -2.596798
-0.541931 -1.297091 -2.583184
-0.472666 -1.295059 -2.595563
-0.473367 -1.297913 -2.544713
-0.531427 -1.296223 -2.595083
-0.492818 -1.292275 -2.652365
-0.561623 -1.298589 -2.563190
-0.560514 -1.297297 -2.585923
-0.590710 -1.299663 -2.554030
-0.551035 -1.292250 -2.672986
-0.560807 -1.291895 -2.682732
-0.580477 -1.294480 -2.643268
-0.550825 -1.293303 -2.654059
-0.580844 -1.295092 -2.632446
-0.502434 -1.290255 -2.691860
-0.531804 -1.286471 -2.769774
-0.512291 -1.285550 -2.779488
-0.512312 -1.284463 -2.798959
-0.531825 -1.285383 -2.789244
-0.472877 -1.284185 -2.790268
-0.541598 -1.285028 -2.798990
-0.590554 -1.288178 -2.759558
-0.570821 -1.288855 -2.740610
-0.580583 -1.289043 -2.740621
-0.551370 -1.284673 -2.808736
-0.590596 -1.286004 -2.798499
-0.610088 -1.288011 -2.769314
-0.755397 -1.309728 -2.430913
-0.687104 -1.316055 -2.294002
-0.688045 -1.316225 -2.291284
-0.668500 -1.316936 -2.271792
-0.638880 -1.314128 -2.311789
-0.648642 -1.314317 -2.311800
-0.658592 -1.314539 -2.311266
-0.638933 -1.311410 -2.360465
-0.629516 -1.312921 -2.330162
-0.658478 -1.310699 -2.379957
-0.687899 -1.314016 -2.330768
-0.659231 -1.310835 -2.377782
-0.630373 -1.317440 -2.249561
-0.669620 -1.317684 -2.258795
-0.620653 -1.315077 -2.288492
-0.679644 -1.314100 -2.326409
-0.736259 -1.318696 -2.263762
-0.697023 -1.317908 -2.264263
-0.716421 -1.314989 -2.323239
-0.707392 -1.316024 -2.301584
-0.707402 -1.315480 -2.311319
-0.745938 -1.313413 -2.361668
-0.716861 -1.311795 -2.380563
-0.736709 -1.314958 -2.330821
-0.746304 -1.314025 -2.350846
-0.756265 -1.313704 -2.360048
-0.697850 -1.314239 -2.330235
-0.717039 -1.312373 -2.370285
-0.736186 -1.312681 -2.371393
-0.757865 -1.318903 -2.267538
-0.708867 -1.317927 -2.268029
-0.698833 -1.312234 -2.366458
-0.747455 -1.313142 -2.367054
-0.639728 -1.309371 -2.397232
-0.639038 -1.305973 -2.457818
-0.678096 -1.306183 -2.467595
-0.678128 -1.304552 -2.496801
-0.687879 -1.305284 -2.487076
-0.687733 -1.303075 -2.526561
-0.679341 -1.310227 -2.395643
-0.659671 -1.307641 -2.435106
-0.640042 -1.302881 -2.513511
-0.736898 -1.305172 -2.506056
-0.833503 -1.310691 -2.440732
-0.852860 -1.309946 -2.460768
-0.862747 -1.313430 -2.401823
-0.813896 -1.304844 -2.538607
-0.852818 -1.312121 -2.421827
-0.795626 -1.317787 -2.300591
-0.775296 -1.319993 -2.254068
-0.765158 -1.319736 -2.255145
-0.833889 -1.320035 -2.273602
-0.794841 -1.319282 -2.273560
-0.833900 -1.319492 -2.283337
-0.766298 -1.319397 -2.261618
-0.785362 -1.314235 -2.360623
-0.775569 -1.315677 -2.331407
-0.795093 -1.316054 -2.331428
-0.816081 -1.318877 -2.288159
-0.767449 -1.318513 -2.277827
-0.777232 -1.317614 -2.297308
-0.806372 -1.315971 -2.336824
-0.806549 -1.316548 -2.326545
-0.872770 -1.319667 -2.293658
-0.863928 -1.320736 -2.271459
-0.872759 -1.320211 -2.283923
-0.863405 -1.318460 -2.312031
-0.854156 -1.321092 -2.261713
-0.873231 -1.315386 -2.370453
-0.844666 -1.316588 -2.339041
-0.873440 -1.314332 -2.389380
-0.903897 -1.322747 -2.249312
-0.855139 -1.319087 -2.297936
-0.884216 -1.320705 -2.279041
-0.874716 -1.316745 -2.346633
-0.874528 -1.316711 -2.347177
-0.884321 -1.315269 -2.376393
-0.795407 -1.309564 -2.447707
-0.824651 -1.312304 -2.408798
-0.785436 -1.310429 -2.428770
-0.814900 -1.311572 -2.418522
-0.766090 -1.310630 -2.418470
-0.805138 -1.311383 -2.418512
-0.766142 -1.307912 -2.467146
-0.824578 -1.306289 -2.516429
-0.775737 -1.306979 -2.487171
-0.824600 -1.305202 -2.535900
-0.765808 -1.305669 -2.507174
-0.836108 -1.312798 -2.403915
-0.902214 -1.312077 -2.439719
-0.853958 -1.311781 -2.428300
-0.893038 -1.310904 -2.457548
-0.873461 -1.313245 -2.408850
-0.892985 -1.313622 -2.408871
-0.892650 -1.311379 -2.448900
-0.892242 -1.312942 -2.420781
-0.882700 -1.311157 -2.449433
-0.882973 -1.306842 -2.526771
-0.893666 -1.307744 -2.514328
-0.902507 -1.306674 -2.536527
-0.892504 -1.309170 -2.488384
-0.873022 -1.306619 -2.527304
-0.902486 -1.307762 -2.517057
-0.873179 -1.308284 -2.497555
-0.902444 -1.309937 -2.478116
-0.892494 -1.309714 -2.478649
-0.865237 -1.311698 -2.433696
-0.884803 -1.309900 -2.472658
-0.628628 -1.300212 -2.557334
-0.667697 -1.299878 -2.576847
-0.677459 -1.300067 -2.576858
-0.657778 -1.298025 -2.606586
-0.648132 -1.291856 -2.713663
-0.620404 -1.298665 -2.582180
-0.688539 -1.300493 -2.573062
-0.649512 -1.298652 -2.592491
-0.629821 -1.297154 -2.612484
-0.629988 -1.298276 -2.592470
-0.668879 -1.297364 -2.622261
-0.687483 -1.296483 -2.644471
-0.630271 -1.293417 -2.679543
-0.707100 -1.301787 -2.556331
-0.726635 -1.301620 -2.566087
-0.698489 -1.300715 -2.572529
-0.717814 -1.301602 -2.563359
-0.698332 -1.299050 -2.602279
-0.746368 -1.300943 -2.585035
-0.756276 -1.303340 -2.545561
-0.727608 -1.300159 -2.592575
-0.707425 -1.294753 -2.682346
-0.727095 -1.297339 -2.642882
-0.708973 -1.302671 -2.541159
-0.758442 -1.298821 -2.627198
-0.669350 -1.292539 -2.708791
-0.629361 -1.291616 -2.711468
-0.619432 -1.290306 -2.731471
-0.639102 -1.292891 -2.692008
-0.659567 -1.293438 -2.689310
-0.649199 -1.285503 -2.827768
-0.649189 -1.286046 -2.818033
-0.658752 -1.286744 -2.808851
-0.619914 -1.284938 -2.827736
-0.668702 -1.286966 -2.808318
-0.727285 -1.287553 -2.818117
-0.698009 -1.286444 -2.827821
-0.756717 -1.290326 -2.778664
-0.707897 -1.289928 -2.768876
-0.727264 -1.288640 -2.798646
-0.737790 -1.288421 -2.806217
-0.748231 -1.292551 -2.735907
-0.784819 -1.303225 -2.557503
-0.872364 -1.301590 -2.617096
-0.833808 -1.294925 -2.723055
-0.795345 -1.303006 -2.565074
-0.775863 -1.300455 -2.603994
-0.834404 -1.303216 -2.574851
-0.795398 -1.300288 -2.613750
-0.766122 -1.299179 -2.623454
-0.805589 -1.297826 -2.661350
-0.795806 -1.298725 -2.641869
-0.815340 -1.298558 -2.651625
-0.835900 -1.304031 -2.560767
-0.767681 -1.296733 -2.667781
-0.873274 -1.303391 -2.585172
-0.902560 -1.303956 -2.585204
-0.844176 -1.302860 -2.584597
-0.892819 -1.302681 -2.604664
-0.892871 -1.299962 -2.653340
-0.873902 -1.300231 -2.641953
-0.892903 -1.298331 -2.682546
-0.902644 -1.299607 -2.663086
-0.844637 -1.298579 -2.661392
-0.884124 -1.305958 -2.542980
-0.795294 -1.295905 -2.692176
-0.824423 -1.294804 -2.721957
-0.766636 -1.292180 -2.748925
-0.786170 -1.292013 -2.758681
-0.824632 -1.293751 -2.740884
-0.795796 -1.289449 -2.807912
-0.786013 -1.290348 -2.788430
-0.767734 -1.294015 -2.716457
-0.835974 -1.290406 -2.804692
-0.797136 -1.288599 -2.823576
-0.844177 -1.293041 -2.760375
-0.892934 -1.296700 -2.711751
-0.902540 -1.295224 -2.741512
-0.882848 -1.293726 -2.761505
-0.863314 -1.293893 -2.751748
-0.853719 -1.294826 -2.731724
-0.883005 -1.295391 -2.731755
-0.892809 -1.293404 -2.770707
-0.902603 -1.291962 -2.799923
-0.844198 -1.291953 -2.779846
-0.346599 -1.278577 -2.846912
-0.327107 -1.276570 -2.876097
-0.366123 -1.278954 -2.846933
-0.395639 -1.277378 -2.885362
-0.346882 -1.273718 -2.933986
-0.327180 -1.272764 -2.944244
-0.386118 -1.274506 -2.933484
-0.366584 -1.274673 -2.923728
-0.453657 -1.277863 -2.896792
-0.434070 -1.280748 -2.838359
-0.414546 -1.280371 -2.838338
-0.434729 -1.275957 -2.924345
-0.463628 -1.276998 -2.915729
-0.454118 -1.273581 -2.973586
-0.424988 -1.274681 -2.943805
-0.327736 -1.263590 -3.108656
-0.327537 -1.264100 -3.099464
-0.366941 -1.266008 -3.078948
-0.337278 -1.265375 -3.080004
-0.376231 -1.271021 -2.992429
-0.357001 -1.265242 -3.089217
-0.366983 -1.263834 -3.117889
-0.425250 -1.270910 -3.011408
-0.444199 -1.271728 -3.003325
-0.454327 -1.272528 -2.992513
-0.405988 -1.266762 -3.078990
-0.396269 -1.264399 -3.117921
-0.454254 -1.266514 -3.100145
-0.590190 -1.267927 -3.121937
-0.561876 -1.275721 -2.972615
-0.473621 -1.275045 -2.954137
-0.522734 -1.279860 -2.884955
-0.522869 -1.282613 -2.835735
-0.483780 -1.274214 -2.972531
-0.590649 -1.283285 -2.847175
-0.552281 -1.276654 -2.952590
-0.571931 -1.280326 -2.893656
-0.552061 -1.278251 -2.923928
-0.493187 -1.273247 -2.993099
-0.483446 -1.271972 -3.012559
-0.532998 -1.273593 -3.000702
-0.533114 -1.267613 -3.107789
-0.483729 -1.267113 -3.099633
-0.493512 -1.266214 -3.119113
-0.396321 -1.261680 -3.166597
-0.386559 -1.261492 -3.166587
-0.386288 -1.255987 -3.265027
-0.376683 -1.257464 -3.235267
-0.454506 -1.263286 -3.158012
-0.444712 -1.264728 -3.128796
-0.425628 -1.261158 -3.186099
-0.435547 -1.263011 -3.156360
-0.445142 -1.262078 -3.176385
-0.435098 -1.256929 -3.265079
-0.435244 -1.259138 -3.225595
-0.347439 -1.254724 -3.274176
-0.327758 -1.252683 -3.303905
-0.386435 -1.248376 -3.401320
-0.376485 -1.248154 -3.401853
-0.366723 -1.247965 -3.401843
-0.405069 -1.255684 -3.276958
-0.464394 -1.256950 -3.274846
-0.415595 -1.255465 -3.284529
-0.405760 -1.249262 -3.392150
-0.425305 -1.248552 -3.411641
-0.424688 -1.251168 -3.364596
-0.444787 -1.251103 -3.372721
-0.542908 -1.266170 -3.137006
-0.522850 -1.264060 -3.167821
-0.503326 -1.263684 -3.167800
-0.484012 -1.262254 -3.186706
-0.483531 -1.257802 -3.266219
-0.543127 -1.264573 -3.165668
-0.580941 -1.260739 -3.247397
-0.503065 -1.257635 -3.275975
-0.542564 -1.254651 -3.343077
-0.541957 -1.256724 -3.305767
-0.512493 -1.255581 -3.316014
-0.483175 -1.256647 -3.286777
-0.512598 -1.250144 -3.413367
-0.493639 -1.249870 -3.411715
-0.512954 -1.251300 -3.392809
-0.523071 -1.252643 -3.372262
-0.580983 -1.258564 -3.286339
-0.572027 -1.255794 -3.332829
-0.600507 -1.258941 -3.286360
-0.590777 -1.257122 -3.315555
-0.600528 -1.257854 -3.305830
-0.611054 -1.257634 -3.313401
-0.600602 -1.254048 -3.373977
-0.746213 -1.279638 -2.966341
-0.726721 -1.277631 -2.995526
-0.659014 -1.282973 -2.876455
-0.639647 -1.284261 -2.846684
-0.619987 -1.281132 -2.895883
-0.668766 -1.283705 -2.866730
-0.649546 -1.277382 -2.973253
-0.620239 -1.277904 -2.953751
-0.679145 -1.281277 -2.913786
-0.650225 -1.281323 -2.902932
-0.650194 -1.282954 -2.873726
-0.717544 -1.286277 -2.837577
-0.737905 -1.282441 -2.913305
-0.748535 -1.286605 -2.842451
-0.698471 -1.272343 -3.080393
-0.668830 -1.270623 -3.100920
-0.757513 -1.278468 -2.991208
-0.668976 -1.272831 -3.061435
-0.688500 -1.273208 -3.061456
-0.698440 -1.273974 -3.051188
-0.727789 -1.271277 -3.109631
-0.757545 -1.276837 -3.020414
-0.843854 -1.280434 -2.985917
-0.824999 -1.284543 -2.905839
-0.824508 -1.280635 -2.975617
-0.806919 -1.287700 -2.843057
-0.777863 -1.284995 -2.881423
-0.777622 -1.287679 -2.833291
-0.768143 -1.282632 -2.920354
-0.864005 -1.287471 -2.866940
-0.873757 -1.288203 -2.857216
-0.864047 -1.285296 -2.905881
-0.844481 -1.287094 -2.866919
-0.864079 -1.283665 -2.935087
-0.844534 -1.284376 -2.915596
-0.865795 -1.282884 -2.949665
-0.864279 -1.273336 -3.120057
-0.844566 -1.272925 -3.120579
-0.815469 -1.272394 -3.120004
-0.786810 -1.278489 -3.000975
-0.816096 -1.279054 -3.001007
-0.786841 -1.276858 -3.030181
-0.756029 -1.267289 -3.190806
-0.640371 -1.266388 -3.166860
-0.639586 -1.267883 -3.139829
-0.620669 -1.265434 -3.177118
-0.620805 -1.268186 -3.127898
-0.688501 -1.263388 -3.237234
-0.688511 -1.262844 -3.246969
-0.737404 -1.269257 -3.149126
-0.737572 -1.270378 -3.129112
-0.756668 -1.263585 -3.257322
-0.738033 -1.266097 -3.205906
-0.699319 -1.267586 -3.165836
-0.669961 -1.261007 -3.273436
-0.640351 -1.257656 -3.323168
-0.717641 -1.261744 -3.276751
-0.728230 -1.258263 -3.342733
-0.756710 -1.261410 -3.296263
-0.688690 -1.253602 -3.412469
-0.630819 -1.255327 -3.361555
-0.738243 -1.255224 -3.400612
-0.738253 -1.254680 -3.410347
-0.639639 -1.255345 -3.364284
-0.620073 -1.257143 -3.325322
-0.766095 -1.261531 -3.297361
-0.893575 -1.273357 -3.129824
-0.766597 -1.264895 -3.237319
-0.776630 -1.270588 -3.138889
-0.815511 -1.270219 -3.158945
-0.815762 -1.266991 -3.216813
-0.776683 -1.267869 -3.187565
-0.855323 -1.270565 -3.166548
-0.835767 -1.271819 -3.137321
-0.825294 -1.269320 -3.178426
-0.865063 -1.271841 -3.147088
-0.844818 -1.269697 -3.178447
-0.777175 -1.261957 -3.293566
-0.825452 -1.261166 -3.324455
-0.766493 -1.260511 -3.315744
-0.815543 -1.258769 -3.363929
-0.805792 -1.258037 -3.373654
-0.836155 -1.261524 -3.321747
-0.806869 -1.260959 -3.321716
0.178051 -1.214365 -3.814595
0.197816 -1.216673 -3.766442
0.264883 -1.208491 -3.889664
0.265228 -1.206792 -3.919957
0.253395 -1.207354 -3.913988
0.110084 -1.215071 -3.825491
0.030888 -1.208593 -3.968886
0.001414 -1.209192 -3.968374
0.071244 -1.207058 -3.982385
0.086783 -1.215585 -3.824375
0.116289 -1.216617 -3.795681
0.086134 -1.211338 -3.900626
0.115147 -1.206457 -3.977932
0.095403 -1.205237 -4.006616
-0.011780 -1.207818 -3.997540
0.017496 -1.206710 -4.007244
0.238269 -1.233062 -3.459058
0.179519 -1.234769 -3.448843
0.238311 -1.235237 -3.420117
0.120266 -1.230021 -3.554363
0.120455 -1.229987 -3.554906
0.149741 -1.229422 -3.554875
0.257458 -1.234928 -3.419009
0.140084 -1.235047 -3.457533
0.256965 -1.219196 -3.700788
0.247276 -1.223190 -3.632651
0.247308 -1.224821 -3.603446
0.120590 -1.227235 -3.604126
0.169295 -1.220857 -3.701426
0.169327 -1.222488 -3.672220
0.198592 -1.220835 -3.691659
0.217948 -1.221580 -3.671624
0.169358 -1.224119 -3.643014
0.178985 -1.226683 -3.593784
0.208249 -1.225030 -3.613223
0.130300 -1.224328 -3.652792
0.003740 -1.234897 -3.507443
0.004013 -1.239212 -3.430105
0.081407 -1.230740 -3.554948
-0.006032 -1.234542 -3.517189
0.023160 -1.238904 -3.428997
-0.006179 -1.236750 -3.477705
0.071645 -1.230929 -3.554959
-0.025660 -1.239302 -3.438785
0.042359 -1.231494 -3.554990
0.013659 -1.233044 -3.537182
0.110693 -1.230175 -3.554917
0.061758 -1.234413 -3.496014
0.061768 -1.234957 -3.486279
0.013293 -1.233656 -3.526360
0.081292 -1.234580 -3.486258
0.003814 -1.238703 -3.439297
0.032764 -1.230561 -3.575015
0.032502 -1.226789 -3.642618
0.100920 -1.229820 -3.564662
-0.006033 -1.224722 -3.692967
0.062050 -1.229996 -3.574983
0.003405 -1.227320 -3.643193
0.101589 -1.225335 -3.644719
0.149886 -1.217394 -3.770138
0.208301 -1.217929 -3.740325
0.247055 -1.211773 -3.837092
0.247275 -1.213370 -3.808430
0.256923 -1.217021 -3.739729
0.179140 -1.215198 -3.799312
0.120422 -1.218536 -3.759890
0.139978 -1.219791 -3.730663
0.237765 -1.216786 -3.750572
0.218324 -1.211692 -3.848490
0.139999 -1.220878 -3.711193
0.217769 -1.212338 -3.837123
0.159113 -1.209118 -3.915068
0.149487 -1.206554 -3.964299
0.120118 -1.212590 -3.866434
0.159281 -1.207997 -3.935083
0.188378 -1.207466 -3.934507
0.102173 -1.206680 -3.978436
0.062958 -1.208555 -3.958464
0.053186 -1.208200 -3.968210
0.081385 -1.219833 -3.750197
0.100940 -1.221087 -3.720970
0.081207 -1.220411 -3.739918
0.091115 -1.218014 -3.779392
0.110671 -1.219268 -3.750165
0.110692 -1.220356 -3.730695
0.091073 -1.215839 -3.818333
0.091052 -1.214752 -3.837804
0.081520 -1.217081 -3.799417
0.061766 -1.215317 -3.837835
0.022624 -1.220997 -3.749717
-0.006693 -1.219931 -3.778954
0.003079 -1.220286 -3.769208
0.022530 -1.216104 -3.837334
0.022468 -1.222662 -3.719967
-0.006923 -1.217790 -3.817351
0.061870 -1.210934 -3.916261
0.110356 -1.212778 -3.866445
0.100730 -1.210214 -3.915675
0.100709 -1.209127 -3.935146
0.071768 -1.207993 -3.965470
0.042461 -1.207471 -3.984972
0.061786 -1.206584 -3.994143
-0.006840 -1.212320 -3.915247
0.002880 -1.209957 -3.954178
0.002796 -1.215428 -3.856282
-0.064311 -1.241074 -3.420444
-0.064970 -1.236283 -3.506430
-0.074722 -1.237015 -3.496705
-0.162454 -1.235414 -3.555755
-0.035695 -1.235175 -3.516134
-0.064814 -1.234618 -3.536179
-0.084306 -1.236626 -3.506994
-0.172185 -1.237234 -3.526560
-0.162412 -1.237589 -3.516814
-0.113560 -1.238822 -3.477820
-0.132885 -1.239708 -3.468650
-0.094100 -1.235183 -3.536211
-0.152661 -1.236857 -3.526539
-0.045541 -1.231014 -3.594026
-0.074848 -1.230492 -3.613528
-0.045835 -1.225611 -3.690835
-0.094205 -1.229747 -3.633563
-0.123480 -1.230855 -3.623860
-0.162612 -1.227259 -3.701784
-0.133284 -1.228869 -3.662811
-0.230935 -1.238941 -3.516344
-0.298808 -1.244541 -3.439623
-0.298661 -1.242332 -3.479107
-0.182083 -1.240174 -3.477350
-0.201439 -1.239429 -3.497386
-0.279148 -1.241412 -3.488822
-0.279399 -1.238184 -3.546690
-0.318238 -1.239990 -3.527805
-0.201471 -1.237798 -3.526591
-0.259561 -1.244297 -3.430389
-0.220953 -1.240350 -3.487671
-0.279074 -1.245217 -3.420675
-0.288868 -1.243775 -3.449891
-0.220985 -1.228899 -3.692655
-0.230695 -1.231806 -3.643990
-0.230674 -1.232893 -3.624519
-0.240289 -1.230873 -3.664014
-0.259792 -1.232337 -3.644565
-0.230485 -1.232859 -3.625063
-0.240404 -1.234712 -3.595324
-0.289224 -1.235110 -3.605112
-0.308791 -1.233312 -3.644074
-0.094540 -1.222170 -3.769313
-0.113886 -1.221969 -3.779613
-0.094289 -1.225397 -3.711445
-0.162749 -1.220192 -3.828342
-0.133002 -1.223908 -3.751516
-0.133243 -1.221224 -3.799648
-0.113834 -1.224687 -3.730937
-0.104271 -1.223989 -3.740118
-0.133463 -1.219627 -3.828310
-0.124099 -1.218419 -3.846683
-0.045773 -1.219053 -3.808202
-0.065275 -1.220517 -3.788752
-0.036095 -1.214516 -3.886073
-0.084392 -1.212637 -3.936433
-0.103885 -1.214645 -3.907248
-0.133621 -1.211472 -3.974339
-0.133077 -1.210283 -3.995441
-0.133913 -1.215889 -3.895370
-0.143393 -1.211117 -3.984085
-0.084538 -1.214846 -3.896948
-0.084528 -1.215389 -3.887213
-0.074546 -1.216798 -3.858540
-0.162928 -1.210950 -3.993841
-0.318302 -1.226908 -3.761995
-0.318281 -1.227996 -3.742524
-0.279338 -1.221806 -3.839834
-0.201503 -1.226348 -3.731575
-0.240342 -1.228154 -3.712690
-0.230455 -1.224670 -3.771635
-0.221080 -1.224006 -3.780272
-0.299553 -1.215761 -3.955048
-0.289834 -1.213398 -3.993978
-0.250765 -1.213732 -3.974465
-0.241086 -1.219014 -3.876559
-0.192130 -1.215864 -3.915991
0.160525 -1.203953 -4.007035
0.160703 -1.203376 -4.017314
0.160922 -1.195153 -4.164430
0.246782 -1.197638 -4.090209
0.120326 -1.203823 -4.023285
0.139829 -1.202359 -4.042735
0.198244 -1.202895 -4.012923
0.227415 -1.196349 -4.119979
0.207943 -1.199444 -4.071323
0.139912 -1.196889 -4.140631
0.207912 -1.197813 -4.100529
0.120482 -1.192338 -4.228813
0.053718 -1.196647 -4.174825
0.110742 -1.203434 -4.033575
0.081215 -1.201315 -4.081739
0.002900 -1.201224 -4.110486
0.071705 -1.204731 -4.023882
0.061848 -1.200026 -4.111510
0.042543 -1.192180 -4.258647
-0.114758 -1.203093 -4.117791
-0.057608 -1.206584 -4.035497
-0.027361 -1.197117 -4.194491
-0.046937 -1.194775 -4.243188
-0.099785 -1.201902 -4.133928
-0.093402 -1.202869 -4.114396
-0.081454 -1.198467 -4.189056
-0.142306 -1.208738 -4.026288
-0.056153 -1.206805 -4.031035
-0.123996 -1.204216 -4.100887
-0.075562 -1.203343 -4.099747
-0.074327 -1.208575 -4.005657
-0.153250 -1.206412 -4.071713
-0.114128 -1.209464 -4.003524
-0.095002 -1.208068 -4.021886
-0.094887 -1.204229 -4.090577
-0.094835 -1.206947 -4.041900
-0.084122 -1.197312 -4.210651
-0.045241 -1.197681 -4.190595
-0.093894 -1.196957 -4.220397
-0.113177 -1.200018 -4.172285
-0.210546 -1.205129 -4.114522
-0.317855 -1.201186 -4.222270
-0.319151 -1.212332 -4.023215
-0.270320 -1.212477 -4.003692
-0.250618 -1.211523 -4.013950
-0.221573 -1.208274 -4.062051
-0.182285 -1.210205 -4.013876
-0.221510 -1.211536 -4.003640
-0.192099 -1.207675 -4.062563
-0.279298 -1.204341 -4.152450
-0.182359 -1.196579 -4.257802
-0.212242 -1.195615 -4.285408
-0.211855 -1.196091 -4.276760
-0.250023 -1.203232 -4.162154
-0.444799 -1.240739 -3.558235
-0.435005 -1.242182 -3.529018
-0.464448 -1.244412 -3.499300
-0.434984 -1.243269 -3.509548
-0.405886 -1.242738 -3.508973
-0.357317 -1.239113 -3.557053
-0.376643 -1.239999 -3.547882
-0.386278 -1.246711 -3.431070
-0.435276 -1.247687 -3.430578
-0.366995 -1.243650 -3.479181
-0.357391 -1.235307 -3.625199
-0.367164 -1.234952 -3.634945
-0.337951 -1.230581 -3.703060
-0.338013 -1.237139 -3.585694
-0.357465 -1.231501 -3.693346
-0.386374 -1.231998 -3.694465
-0.454268 -1.236510 -3.637214
-0.415785 -1.235859 -3.635541
-0.435068 -1.238920 -3.587430
-0.464354 -1.239485 -3.587461
-0.327917 -1.234708 -3.625711
-0.415838 -1.233141 -3.684218
-0.337878 -1.234387 -3.634914
-0.571934 -1.250867 -3.420990
-0.562287 -1.244698 -3.528068
-0.591741 -1.246385 -3.508085
-0.600603 -1.244228 -3.549755
-0.542042 -1.242555 -3.559427
-0.581738 -1.248881 -3.459942
-0.601629 -1.240049 -3.624919
-0.503025 -1.240170 -3.588591
-0.591825 -1.242035 -3.585967
-0.483565 -1.236532 -3.646981
-0.611548 -1.241902 -3.595180
-0.483763 -1.236022 -3.656173
-0.552432 -1.239583 -3.616218
-0.562351 -1.241436 -3.586479
-0.552652 -1.237986 -3.644880
-0.347609 -1.226386 -3.781497
-0.328451 -1.226621 -3.770653
-0.377219 -1.229737 -3.731765
-0.377167 -1.222636 -3.858866
-0.347924 -1.219896 -3.897776
-0.445711 -1.222901 -3.877867
-0.357550 -1.217332 -3.947006
-0.377095 -1.216622 -3.966498
-0.426072 -1.218684 -3.946536
-0.513510 -1.232306 -3.732999
-0.513825 -1.225816 -3.849278
-0.523283 -1.231950 -3.742745
-0.474483 -1.230465 -3.752428
-0.504021 -1.227802 -3.810327
-0.513730 -1.230709 -3.761661
-0.542880 -1.228521 -3.810913
-0.553397 -1.219026 -3.984527
-0.573077 -1.221068 -3.954798
-0.523922 -1.218427 -3.985039
-0.484801 -1.221479 -3.916850
-0.543373 -1.222609 -3.916913
-0.514160 -1.218239 -3.985029
-0.620964 -1.250211 -3.449705
-0.631008 -1.245541 -3.536789
-0.679839 -1.245395 -3.556313
-0.689580 -1.246671 -3.536853
-0.621215 -1.246983 -3.507573
-0.650323 -1.246971 -3.517884
-0.670067 -1.245750 -3.546567
-0.679787 -1.248113 -3.507636
-0.756846 -1.254343 -3.422821
-0.727749 -1.253812 -3.422246
-0.698610 -1.245636 -3.558508
-0.737616 -1.248564 -3.519609
-0.660421 -1.239582 -3.653644
-0.698495 -1.241796 -3.627199
-0.689707 -1.240147 -3.653676
-0.679976 -1.238328 -3.682871
-0.757025 -1.245100 -3.588321
-0.709283 -1.237805 -3.702373
-0.708215 -1.244159 -3.588268
-0.825212 -1.254030 -3.452101
-0.806452 -1.253246 -3.459640
-0.795894 -1.255096 -3.422863
-0.796219 -1.248062 -3.548878
-0.766902 -1.249128 -3.519641
-0.776455 -1.250370 -3.500725
-0.777271 -1.247244 -3.556961
-0.786457 -1.247874 -3.548868
-0.796230 -1.247519 -3.558613
-0.854665 -1.255716 -3.432118
-0.845468 -1.255630 -3.430477
-0.883763 -1.256247 -3.432693
-0.894028 -1.249980 -3.548440
-0.904145 -1.251323 -3.527892
-0.865286 -1.250604 -3.527307
-0.895837 -1.254125 -3.474856
-0.886138 -1.250675 -3.533257
-0.766808 -1.244202 -3.607802
-0.844883 -1.246795 -3.588415
-0.896058 -1.242709 -3.679296
-0.835613 -1.240695 -3.694405
-0.786489 -1.246243 -3.578073
-0.769047 -1.245697 -3.581807
-0.894886 -1.244679 -3.643618
-0.875320 -1.246477 -3.604656
-0.864637 -1.245031 -3.626834
-0.884109 -1.248126 -3.578179
-0.650262 -1.230593 -3.811028
-0.669964 -1.231547 -3.800771
-0.689655 -1.233045 -3.780777
-0.738894 -1.231336 -3.828419
-0.620913 -1.233290 -3.752585
-0.884444 -1.240549 -3.713928
-0.864827 -1.235246 -3.802068
-0.855065 -1.235057 -3.802058
-0.894092 -1.236898 -3.782629
-0.816121 -1.238687 -3.723590
-0.806193 -1.227558 -3.919372
-0.796494 -1.224107 -3.977773
-0.886339 -1.230526 -3.894005
-0.905905 -1.228728 -3.932967
-0.825696 -1.229022 -3.899922
-0.903645 -1.228320 -3.939491
-0.835646 -1.229244 -3.899389
-0.903572 -1.232125 -3.871345
-0.884069 -1.230661 -3.890794
-0.347130 -1.202295 -4.212566
-0.445680 -1.214712 -4.024439
-0.358000 -1.213595 -4.014066
-0.416593 -1.213637 -4.033599
-0.387339 -1.211441 -4.062774
-0.366968 -1.206002 -4.153088
-0.425728 -1.207165 -4.152608
-0.553439 -1.216851 -4.023468
-0.504284 -1.214211 -4.053709
-0.563190 -1.217583 -4.013743
-0.523975 -1.215709 -4.033715
-0.592759 -1.213289 -4.100848
-0.563253 -1.214321 -4.072155
-0.523976 -1.205889 -4.209494
-0.475396 -1.202807 -4.247838
-0.514465 -1.202473 -4.267351
-0.455654 -1.194207 -4.394933
-0.426535 -1.194763 -4.374887
-0.367618 -1.191934 -4.405118
-0.485065 -1.198068 -4.336010
-0.719498 -1.214616 -4.120999
-0.854930 -1.222485 -4.027056
-0.894020 -1.221064 -4.066039
-0.903636 -1.219043 -4.105534
-0.893738 -1.216103 -4.154744
-0.806552 -1.199253 -4.426149
-0.867275 -1.235688 -3.795001
-0.931750 -1.319234 -2.321840
-0.921444 -1.317856 -2.342931
-0.951347 -1.315805 -2.390008
-0.923630 -1.322070 -2.268260
-0.923620 -1.322614 -2.258525
-0.952937 -1.321548 -2.287762
-0.972419 -1.324099 -2.248842
-0.961977 -1.319969 -2.319153
-0.933330 -1.315701 -2.385637
-0.923693 -1.318808 -2.326672
-0.981931 -1.317695 -2.366763
-0.982119 -1.317729 -2.366220
-0.913963 -1.316989 -2.355867
-0.943092 -1.315889 -2.385648
-0.962752 -1.319018 -2.336449
-0.933686 -1.316856 -2.365079
-1.030112 -1.321797 -2.310035
-1.010620 -1.319789 -2.339220
-1.030154 -1.319622 -2.348976
-1.048904 -1.320950 -2.331701
-1.020371 -1.320521 -2.329495
-1.049804 -1.323295 -2.290042
-1.020685 -1.323851 -2.269996
-1.030353 -1.319113 -2.358168
-0.912498 -1.314542 -2.399157
-0.912164 -1.312299 -2.439185
-0.971290 -1.314075 -2.427882
-0.960984 -1.312697 -2.448973
-0.921915 -1.313031 -2.429461
-0.921947 -1.311400 -2.458667
-0.941439 -1.313408 -2.429482
-0.961058 -1.308892 -2.517120
-0.922952 -1.308309 -2.514360
-0.941367 -1.307394 -2.537113
-0.962480 -1.313513 -2.434889
-0.962449 -1.315144 -2.405683
-0.962658 -1.314091 -2.424610
-0.923589 -1.314425 -2.405097
-0.962952 -1.308688 -2.521419
-0.923684 -1.309532 -2.492715
-0.923914 -1.307391 -2.531112
-0.914142 -1.307747 -2.521366
-0.923663 -1.310619 -2.473244
-1.049553 -1.316703 -2.407952
-1.020257 -1.316682 -2.398185
-1.028931 -1.314491 -2.440399
-1.039603 -1.316481 -2.408485
-1.010694 -1.315984 -2.407367
-1.010454 -1.308848 -2.535012
-1.050192 -1.312999 -2.474468
-1.069171 -1.322006 -2.319813
-1.078808 -1.318899 -2.378778
-1.059095 -1.318488 -2.379301
-1.087963 -1.321160 -2.341479
-1.127785 -1.320962 -2.358817
-1.127795 -1.320418 -2.368552
-1.078996 -1.318933 -2.378235
-1.127764 -1.322049 -2.339346
-1.128422 -1.327078 -2.249554
-1.069914 -1.322686 -2.307903
-1.069359 -1.322041 -2.319269
-1.079100 -1.323316 -2.299809
-1.098572 -1.326411 -2.251154
-1.118106 -1.326244 -2.260910
-1.069495 -1.324793 -2.270049
-1.079121 -1.322229 -2.319279
-1.175914 -1.327782 -2.253412
-1.166592 -1.324399 -2.310726
-1.195846 -1.326595 -2.281552
-1.147078 -1.323479 -2.320440
-1.195679 -1.325474 -2.301566
-1.186126 -1.324232 -2.320482
-1.195867 -1.325508 -2.301022
-1.147099 -1.322392 -2.339911
-1.186147 -1.323145 -2.339953
-1.176595 -1.321903 -2.358869
-1.166613 -1.323312 -2.330197
-1.186168 -1.322058 -2.359423
-1.167021 -1.321749 -2.358315
-1.088591 -1.318000 -2.398259
-1.098353 -1.318188 -2.398270
-1.108125 -1.317833 -2.408015
-1.108157 -1.316202 -2.437221
-1.068899 -1.316502 -2.418252
