ply
format ascii 1.0
comment sampling resolution: 0.01
comment noise level: 0.05
comment Created by Open3D
element vertex 1651
property double x
property double y
property double z
end_header
-0.174972 0.365856 0.475341
-0.294186 0.445289 -0.439797
-0.296868 0.440647 0.52159
-0.281718 -0.476546 0.4441
0.538751 -0.286357 0.455194
-0.46412 -0.248077 0.427051
-0.341347 0.46377 0.47995
-0.25437 0.368819 -0.514189
-0.295074 0.530957 0.478053
-0.215607 -0.518003 0.464347
0.471789 -0.228129 0.553737
-0.518514 -0.181029 0.474784
-0.311763 0.472099 0.539427
-0.199355 0.545495 -0.438606
-0.223849 0.535933 0.479796
-0.185349 -0.517864 0.45266
0.50662 -0.234158 0.45094
-0.497287 -0.245184 0.471046
-0.229499 0.510476 0.410074
-0.235519 0.429137 -0.501661
-0.26848 0.422822 0.496794
-0.175659 -0.578687 0.44558
0.556321 -0.259278 0.506365
-0.51629 -0.203631 0.489032
-0.283977 0.465677 0.477591
-0.338862 0.522984 -0.528211
-0.318275 0.484992 0.458951
-0.25919 -0.53689 0.448564
0.486978 -0.220718 0.519587
-0.54126 -0.218152 0.5101
-0.336415 0.413335 0.406646
-0.0620588 0.401482 -0.510242
-0.32679 0.40941 0.554839
-0.295177 -0.458872 0.507706
0.536714 -0.212199 0.440113
-0.495603 -0.166091 0.409686
-0.239846 0.496494 0.508882
-0.27384 0.55649 -0.511036
-0.309404 0.556539 0.458579
-0.220804 -0.606069 0.64597
0.536274 -0.315069 0.54697
-0.499281 -0.209851 0.531657
-0.199246 -0.503166 0.566011
-0.275571 -0.517438 -0.459981
-0.272793 0.605509 -0.495898
-0.178332 -0.50925 -0.434793
0.539624 -0.250639 -0.557243
-0.545606 -0.305662 -0.454984
-0.277449 -0.540433 0.491212
-0.289354 -0.44604 -0.543784
-0.184117 0.510818 -0.512488
-0.299947 -0.570679 -0.47526
0.497365 -0.267894 -0.536514
-0.547475 -0.243785 -0.47136
-0.227153 -0.496184 0.531073
-0.234341 -0.489969 -0.521182
-0.249792 0.477117 -0.451857
-0.270524 -0.4754 -0.434499
0.355959 -0.199574 -0.439327
-0.446129 -0.317201 -0.477516
-0.256659 -0.441735 0.525559
-0.277507 -0.490453 -0.455363
-0.288714 0.47604 -0.514229
-0.202618 -0.547176 -0.430396
0.504404 -0.197886 -0.441856
-0.470328 -0.299494 -0.402041
-0.223744 -0.457441 0.489232
-0.242759 -0.393175 -0.581597
-0.266387 0.436272 -0.419241
-0.261341 -0.529832 -0.353327
0.449816 -0.24174 -0.471477
-0.500109 -0.325371 -0.425704
-0.423781 -0.39463 0.501759
-0.32285 -0.467764 -0.477643
-0.23313 0.503313 -0.47824
-0.228095 -0.462601 -0.453432
0.498448 -0.247628 -0.35119
-0.532623 -0.2582 -0.426971
-0.206193 -0.38312 0.541662
-0.270843 -0.43203 -0.49178
-0.27511 0.554636 -0.46047
-0.257902 -0.520665 -0.39745
0.539659 -0.178183 -0.423078
-0.603824 -0.274729 -0.400965
-0.215668 -0.442808 0.475253
-0.283339 -0.439361 -0.423001
-0.245724 0.467036 -0.413118
-0.222211 -0.510879 -0.467374
0.570581 -0.303963 -0.482364
-0.479476 -0.353214 -0.460624
-0.175544 -0.431177 0.480529
-0.220585 -0.419343 -0.501149
-0.216936 0.523488 -0.390133
-0.228987 -0.504618 -0.334156
0.493497 -0.304525 -0.376332
-0.4939 -0.292459 -0.376027
-0.26151 -0.49049 0.575345
-0.251822 -0.432062 -0.576755
-0.286559 0.451041 -0.323893
-0.157717 -0.489017 -0.410193
0.48685 -0.213633 -0.38354
-0.462898 -0.352261 -0.392325
-0.383293 -0.365156 0.486976
-0.275314 -0.37494 -0.530549
-0.161611 0.425515 -0.428153
-0.262679 -0.531088 -0.360601
0.313662 -0.249946 -0.433139
-0.575654 -0.243924 -0.392638
-0.267675 -0.386583 0.497374
-0.185988 -0.3917 -0.518539
-0.267477 0.486094 -0.397489
-0.319238 -0.505834 -0.419245
0.589111 -0.210578 -0.347708
-0.513392 -0.325198 -0.377616
-0.219004 -0.348523 0.567106
-0.173878 -0.328024 -0.497364
-0.250391 0.51088 -0.463177
-0.248871 -0.469786 -0.351045
0.484733 -0.294106 -0.358511
-0.47708 -0.293533 -0.363979
-0.243619 -0.344739 0.471325
-0.271539 -0.3791 -0.467396
-0.260278 0.445504 -0.295655
-0.270289 -0.495469 -0.380871
0.475389 -0.304824 -0.380639
-0.462278 -0.281091 -0.395498
-0.268133 -0.355351 0.546968
-0.336835 -0.358967 -0.530255
-0.196759 0.52353 -0.44283
-0.190312 -0.537011 -0.376116
0.427741 -0.245606 -0.368299
-0.537039 -0.256719 -0.436736
-0.276672 -0.356624 0.494083
-0.272627 -0.343502 -0.522116
-0.309144 0.47554 -0.408904
-0.24523 -0.479625 -0.25108
0.504615 -0.281376 -0.337868
-0.46369 -0.171213 -0.251561
-0.299441 -0.430751 0.533187
-0.313126 -0.400827 -0.504536
-0.238329 0.458872 -0.33214
-0.286735 -0.538879 -0.440061
0.521389 -0.262162 -0.308232
-0.409601 -0.285323 -0.325402
-0.221203 -0.367448 0.530059
-0.197254 -0.307543 -0.584819
-0.21398 0.456983 -0.259805
-0.271408 -0.561212 -0.326808
0.443163 -0.242039 -0.416707
-0.556074 -0.318193 -0.352203
-0.279967 -0.380445 0.39881
-0.257873 -0.321997 -0.474653
-0.208931 0.489757 -0.311802
-0.34064 -0.536343 -0.314865
0.51759 -0.305472 -0.278616
-0.479575 -0.171849 -0.33298
-0.187069 -0.245223 0.544219
-0.269619 -0.340414 -0.50979
-0.237522 0.481428 -0.252988
-0.271049 -0.53111 -0.259613
0.452541 -0.190686 -0.345424
-0.434531 -0.272207 -0.249577
-0.253796 -0.200141 0.477143
-0.305652 -0.36522 -0.485776
-0.323911 0.529523 -0.317207
-0.12534 -0.516534 -0.255193
0.451207 -0.24416 -0.208079
-0.553103 -0.232081 -0.259955
-0.23723 -0.316398 0.525346
-0.220457 -0.326904 -0.500727
-0.305472 0.513497 -0.323577
-0.208079 -0.483949 -0.310209
0.552584 -0.212544 -0.285097
-0.590576 -0.151766 -0.279336
-0.302402 -0.23091 0.560168
-0.226587 -0.290631 -0.460695
-0.274581 0.404327 -0.312859
-0.276622 -0.547272 -0.244314
0.55254 -0.345972 -0.276008
-0.551481 -0.235159 -0.261906
-0.219434 -0.199908 0.471501
-0.294669 -0.232214 -0.533561
-0.1757 0.548862 -0.296108
-0.295211 -0.511826 -0.28136
0.453992 -0.331042 -0.213732
-0.52405 -0.221851 -0.233138
-0.238421 -0.169841 0.492798
-0.298173 -0.246736 -0.647071
-0.20558 0.614242 -0.223229
-0.218965 -0.374554 -0.275438
0.463437 -0.26836 -0.163853
-0.541085 -0.261163 -0.208501
-0.268073 -0.297727 0.501948
-0.250075 -0.273285 -0.445903
-0.191512 0.423415 -0.239506
-0.250329 -0.583942 -0.29781
0.562999 -0.260559 -0.128235
-0.467671 -0.28449 -0.144789
-0.213956 -0.166713 0.493431
-0.273443 -0.246567 -0.515671
-0.255814 0.447431 -0.206583
-0.337189 -0.347065 -0.366881
0.484428 -0.305259 -0.255585
-0.534008 -0.255237 -0.252723
-0.239895 -0.189229 0.482623
-0.281501 -0.173419 -0.501212
-0.319516 0.613271 -0.279611
-0.303249 -0.457878 -0.203171
0.43519 -0.310483 -0.282418
-0.562687 -0.225178 -0.284929
-0.337898 -0.296847 0.473367
-0.208363 -0.220472 -0.494844
-0.237939 0.501698 -0.249515
-0.176237 -0.595844 -0.11084
0.383856 -0.284772 -0.196443
-0.381709 -0.26426 -0.210655
-0.186311 -0.28016 0.539446
-0.148034 -0.248389 -0.497719
-0.255971 0.611086 -0.222547
-0.153114 -0.597962 -0.30204
0.540934 -0.264236 -0.173226
-0.569737 -0.305887 -0.252233
-0.234634 -0.234142 0.484859
-0.196682 -0.0870253 -0.511789
-0.236897 0.606093 -0.231057
-0.256273 -0.474667 -0.220736
0.453241 -0.126868 -0.239559
-0.46462 -0.168111 -0.153293
-0.279575 -0.177828 0.478741
-0.293903 -0.141867 -0.451634
-0.241356 0.455724 -0.175439
-0.257004 -0.536923 -0.161523
0.462819 -0.33779 -0.136319
-0.455893 -0.342756 -0.187563
-0.229286 -0.143765 0.631238
-0.192233 -0.227311 -0.466771
-0.231225 0.558499 -0.199926
-0.234789 -0.605015 -0.281555
0.522872 -0.28075 -0.255045
-0.595725 -0.296328 -0.186133
-0.173356 -0.16134 0.539109
-0.218634 -0.114727 -0.50084
-0.206063 0.485087 -0.169244
-0.259363 -0.501294 -0.135983
0.550983 -0.24432 -0.167099
-0.506524 -0.22549 -0.0691678
-0.269589 -0.150559 0.451848
-0.274401 -0.156145 -0.475627
-0.213464 0.451121 -0.12161
-0.263196 -0.579691 -0.182314
0.526342 -0.256287 -0.071597
-0.523324 -0.326103 -0.136157
-0.248401 -0.170128 0.400068
-0.289526 -0.203841 -0.477359
-0.253247 0.462377 -0.0870498
-0.293403 -0.461614 -0.137136
0.512699 -0.217113 -0.19233
-0.465284 -0.269792 -0.186825
-0.23146 -0.165075 0.521916
-0.236411 -0.125784 -0.556781
-0.261841 0.50191 -0.127191
-0.270061 -0.648574 -0.154221
0.486065 -0.348619 -0.121234
-0.486527 -0.24807 -0.0921951
-0.139102 -0.137201 0.423725
-0.269252 -0.0473442 -0.480497
-0.301319 0.550751 -0.0485417
-0.265263 -0.540049 -0.115126
0.539477 -0.267253 -0.0652451
-0.621187 -0.140068 -0.0630386
-0.24565 -0.0678824 0.41443
-0.325812 -0.143922 -0.405194
-0.21758 0.5439 -0.134561
-0.206675 -0.435615 -0.0751349
0.522431 -0.18869 -0.15596
-0.461859 -0.111089 -0.155299
-0.298653 -0.130982 0.506344
-0.196465 -0.0911323 -0.597569
-0.23217 0.430678 -0.0368874
-0.26115 -0.557347 -0.0978503
0.494492 -0.275401 -0.189234
-0.556117 -0.234091 -0.0936202
-0.290448 -0.169576 0.537676
-0.311304 -0.022757 -0.496257
-0.250664 0.52298 -0.0946504
-0.257077 -0.429331 -0.0749362
0.481455 -0.202371 -0.0938606
-0.497347 -0.195758 -0.0359711
-0.289752 -0.130155 0.439409
-0.15498 -0.10823 -0.482379
-0.218371 0.549895 -0.0909014
-0.290853 -0.453317 -0.0283146
0.434998 -0.236665 -0.0840894
-0.517482 -0.116446 -0.0591363
-0.248393 -0.195361 0.430481
-0.252478 -0.0365782 -0.453466
-0.255794 0.49889 -0.12858
-0.247104 -0.480023 -0.0275578
0.517445 -0.238422 -0.104252
-0.580848 -0.291001 -0.115165
-0.160639 -0.0500757 0.482231
-0.251886 -0.056805 -0.528122
-0.33126 0.459513 -0.0241619
-0.241906 -0.471859 -0.0726713
0.561524 -0.292068 -0.10553
-0.443821 -0.193223 -0.026155
-0.175798 -0.0582531 0.448653
-0.259729 -0.0418426 -0.437957
-0.270528 0.568038 -0.0676324
-0.163791 -0.516609 -0.037384
0.509726 -0.216763 -0.04277
-0.520218 -0.325131 -0.00760835
-0.235517 -0.0303169 0.537224
-0.26434 -0.0117637 -0.613273
-0.275834 0.539631 -0.0557303
-0.21889 -0.500772 0.0167538
0.44214 -0.235948 0.0382288
-0.5155 -0.159088 -0.0933385
-0.350352 -0.123592 0.519042
-0.304742 -0.0274024 -0.505103
-0.322372 0.50539 -0.0556874
-0.166813 -0.505028 -0.0056125
0.463614 -0.24801 -0.0158666
-0.536937 -0.250932 0.030994
-0.273696 0.0131023 0.537507
-0.259506 -0.000163008 -0.519049
-0.33501 0.348563 -0.0159971
-0.215385 -0.578758 -0.0897494
0.522725 -0.266605 -0.0266089
-0.455431 -0.282298 -0.0465138
-0.332273 0.00561782 0.458457
-0.181239 0.0404716 -0.425139
-0.240665 0.464927 0.0536221
-0.152537 -0.518826 0.0147935
0.506292 -0.28102 -0.033384
-0.467989 -0.231088 -0.000302974
-0.237629 -0.110655 0.396544
-0.216835 0.053367 -0.501312
-0.347796 0.539717 -0.0942626
-0.360476 -0.486261 -0.0653574
0.527639 -0.199384 0.0359084
-0.477221 -0.165542 -0.0295084
-0.259978 -0.0242271 0.460122
-0.3008 0.110779 -0.437008
-0.300274 0.457679 -0.0393962
-0.178433 -0.553453 0.0377679
0.506759 -0.20303 -0.057477
-0.463584 -0.306602 0.0185863
-0.206205 -0.0499341 0.551383
-0.330579 0.0614148 -0.464951
-0.213983 0.54422 -0.0741969
-0.27424 -0.490602 0.0131283
0.408232 -0.314489 0.00274246
-0.515014 -0.221474 0.0142562
-0.13169 0.00883834 0.481339
-0.278968 -0.0135415 -0.446619
-0.276092 0.506665 -0.0536173
-0.240139 -0.490524 0.0667868
0.5268 -0.283846 0.0342143
-0.490612 -0.334056 0.0983142
-0.276775 0.130795 0.575371
-0.203839 0.0430957 -0.548408
-0.206595 0.492396 0.061914
-0.285194 -0.459013 -0.0190164
0.552028 -0.275287 0.0452571
-0.464262 -0.208269 0.0108329
-0.209368 0.0113012 0.591822
-0.167396 0.0734234 -0.570236
-0.239554 0.533145 0.0368556
-0.208931 -0.49939 0.0236027
0.503072 -0.298134 0.0887992
-0.421625 -0.252116 -0.00210003
-0.208137 0.038039 0.521905
-0.187754 0.0611108 -0.383508
-0.275214 0.517978 0.0453751
-0.221175 -0.487533 0.0942347
0.542432 -0.218347 0.0530864
-0.481291 -0.235644 0.0616131
-0.184896 0.0234389 0.511002
-0.261499 0.0662689 -0.46627
-0.265538 0.489549 0.148004
-0.269335 -0.468344 0.0314405
0.562778 -0.216241 0.0101479
-0.461019 -0.26111 0.047839
-0.259979 0.00237674 0.481053
-0.291072 0.113429 -0.451988
-0.302438 0.45643 0.122224
-0.222506 -0.504173 0.0619108
0.563056 -0.284024 0.115551
-0.429534 -0.289391 0.107076
-0.21123 0.11275 0.524732
-0.278871 0.0622769 -0.462996
-0.22178 0.502469 0.0025025
-0.219224 -0.468724 0.00654909
0.453213 -0.236969 0.0546759
-0.414953 -0.156931 0.0437473
-0.183091 0.0736673 0.486903
-0.200212 0.0126172 -0.447854
-0.244674 0.50181 0.0890884
-0.257726 -0.502634 0.0495672
0.483517 -0.26574 0.0921126
-0.474625 -0.266351 0.152387
-0.298104 0.106247 0.47821
-0.247641 -0.0147689 -0.457654
-0.177654 0.535895 0.188266
-0.222737 -0.39896 0.0806343
0.424166 -0.211154 0.188633
-0.544513 -0.298 0.0719315
-0.246917 0.0852625 0.448706
-0.255978 0.127502 -0.494331
-0.244393 0.496578 0.174546
-0.256504 -0.464676 0.160689
0.528116 -0.272592 0.149336
-0.588652 -0.123772 0.120335
-0.258365 0.0620461 0.482679
-0.265645 0.0918184 -0.531628
-0.324976 0.576637 0.105109
-0.279061 -0.506175 0.107034
0.447266 -0.291527 0.180056
-0.462462 -0.147186 0.085009
-0.145533 0.181912 0.509029
-0.198724 0.100104 -0.46006
-0.200048 0.541234 0.174985
-0.247599 -0.457076 0.0962132
0.523449 -0.311143 0.0688734
-0.551976 -0.310344 0.239106
-0.16928 0.109221 0.554992
-0.263771 0.108189 -0.581974
-0.10004 0.420618 0.270304
-0.251856 -0.486039 0.183061
0.461971 -0.249891 0.0795516
-0.459385 -0.234618 0.128646
-0.235881 0.23471 0.468077
-0.140894 0.153699 -0.515296
-0.238034 0.480054 0.210042
-0.163668 -0.47285 0.086441
0.55593 -0.263532 0.194922
-0.426554 -0.337453 0.176204
-0.232429 0.146678 0.443184
-0.198739 0.252466 -0.477872
-0.261244 0.54464 0.275363
-0.221339 -0.520544 0.164458
0.420546 -0.312045 0.246118
-0.514645 -0.235304 0.0924911
-0.208151 0.101931 0.451434
-0.191745 0.132289 -0.534293
-0.172368 0.428559 0.230994
-0.241662 -0.526236 0.119976
0.490193 -0.33756 0.218582
-0.490682 -0.253503 0.205552
-0.262418 0.141447 0.451066
-0.295387 0.181124 -0.552142
-0.211968 0.541431 0.0905216
-0.262744 -0.549397 0.132464
0.493654 -0.299544 0.134367
-0.506103 -0.330665 0.212623
-0.233199 0.316959 0.509806
-0.205517 0.218306 -0.490439
-0.194436 0.494546 0.217174
-0.271204 -0.493023 0.14331
0.466522 -0.30212 0.285229
-0.502818 -0.247118 0.207192
-0.228116 0.252309 0.392698
-0.310699 0.136353 -0.453504
-0.213167 0.490106 0.247617
-0.208129 -0.564429 0.209259
0.498072 -0.293654 0.217337
-0.568635 -0.162436 0.143196
-0.227955 0.143546 0.435834
-0.202826 0.26203 -0.504486
-0.213978 0.545963 0.233304
-0.270425 -0.552551 0.199006
0.511084 -0.179341 0.176058
-0.580486 -0.264103 0.297
-0.16235 0.298236 0.478251
-0.288377 0.293787 -0.503576
-0.357357 0.550624 0.301309
-0.246476 -0.521614 0.231671
0.480198 -0.366339 0.263421
-0.527324 -0.247798 0.214344
-0.223333 0.207919 0.483259
-0.325815 0.207008 -0.487113
-0.236073 0.496387 0.249219
-0.244647 -0.536825 0.213164
0.445642 -0.217349 0.183654
-0.521729 -0.222065 0.230193
-0.22496 0.306908 0.534569
-0.335417 0.289506 -0.491385
-0.387266 0.456722 0.257001
-0.186782 -0.520764 0.278324
0.494185 -0.332379 0.305046
-0.525835 -0.2568 0.2673
-0.267916 0.229077 0.560219
-0.230126 0.244304 -0.534544
-0.119816 0.478148 0.236468
-0.262296 -0.542683 0.361686
0.579347 -0.294376 0.318342
-0.56086 -0.242154 0.364484
-0.250253 0.245291 0.532472
-0.300736 0.35537 -0.49713
-0.209177 0.488051 0.378611
-0.150422 -0.473295 0.177138
0.519986 -0.252258 0.221794
-0.515181 -0.230299 0.262465
-0.253172 0.303641 0.457143
-0.20653 0.207283 -0.493945
-0.269705 0.533519 0.207942
-0.2163 -0.48211 0.39458
0.494209 -0.201454 0.257895
-0.50053 -0.23235 0.29684
-0.159063 0.351721 0.432983
-0.276437 0.231722 -0.318107
-0.272107 0.470937 0.276823
-0.170217 -0.562974 0.308923
0.552388 -0.323269 0.274329
-0.52192 -0.363433 0.285311
-0.312449 0.302452 0.575153
-0.22689 0.316743 -0.514224
-0.300187 0.506917 0.27857
-0.268466 -0.518458 0.301374
0.456893 -0.275066 0.270597
-0.456871 -0.198426 0.241724
-0.261395 0.254367 0.572895
-0.277725 0.295126 -0.471195
-0.191594 0.491385 0.202371
-0.268807 -0.452037 0.245845
0.542576 -0.232387 0.37894
-0.461591 -0.164746 0.275601
-0.196363 0.310715 0.474876
-0.268371 0.392965 -0.472435
-0.301479 0.510349 0.248627
-0.242147 -0.588322 0.333952
0.524767 -0.23966 0.309295
-0.472596 -0.278792 0.430045
-0.311362 0.324717 0.433732
-0.179295 0.390659 -0.575079
-0.194222 0.529226 0.321131
-0.312206 -0.486175 0.220517
0.515678 -0.294036 0.269251
-0.472234 -0.167778 0.313833
-0.180689 0.360804 0.511899
-0.313464 0.302199 -0.530725
-0.230998 0.485094 0.321438
-0.239674 -0.354041 0.324152
0.497955 -0.317368 0.390372
-0.587025 -0.228498 0.38086
-0.240679 0.231392 0.525386
-0.353587 0.262845 -0.481149
-0.204917 0.527375 0.376226
-0.175609 -0.525644 0.418223
0.571265 -0.26229 0.283144
-0.525033 -0.209866 0.338839
-0.278082 0.414667 0.588452
-0.301934 0.330546 -0.467788
-0.299192 0.427561 0.36386
-0.263931 -0.529995 0.435919
0.537602 -0.228038 0.362022
-0.465667 -0.244519 0.398323
-0.172733 0.331142 0.494696
-0.295359 0.289108 -0.554595
-0.302551 0.561901 0.376709
-0.28633 -0.452273 0.366837
0.475397 -0.222922 0.290972
-0.48529 -0.143747 0.379072
-0.294377 0.387267 0.501202
-0.258653 0.31095 -0.618441
-0.167349 0.497185 0.499782
-0.273093 -0.453585 0.273206
0.503955 -0.245031 0.338243
-0.5084 -0.233718 0.406844
-0.237988 0.401729 0.413004
-0.210984 0.37895 -0.478164
-0.247318 0.555133 0.43693
-0.258453 -0.473933 0.404155
0.492833 -0.253915 0.455956
-0.508212 -0.266027 0.389778
-0.19838 0.486182 0.467555
-0.271807 0.421762 -0.583493
-0.228399 0.592798 0.429693
-0.174148 -0.474322 0.418021
0.521931 -0.350467 0.372281
-0.505312 -0.199835 0.39159
-0.3204 0.461751 0.487309
-0.273695 0.422888 -0.41534
-0.124862 0.538617 0.328769
-0.266097 -0.518032 0.32458
0.589749 -0.26946 0.302967
-0.49324 -0.226947 0.479367
-0.297355 0.379506 0.552615
-0.338941 0.426219 -0.456399
-0.282411 0.478532 0.456993
-0.180056 -0.500943 0.411852
0.531014 -0.245603 0.396712
-0.465753 -0.379391 0.503725
-0.282793 0.411733 0.496888
-0.14192 0.513871 -0.434308
-0.257741 0.499309 0.394367
-0.145646 -0.489342 0.37941
0.486906 -0.169102 0.498566
-0.408206 -0.151377 0.421429
-0.272735 0.484203 0.495796
-0.267453 0.41659 -0.558228
-0.279876 0.515925 0.496157
-0.224225 -0.550198 0.429129
0.4633 -0.267674 0.457699
-0.42675 -0.231932 0.471009
-0.28712 0.437766 0.459274
-0.246796 0.421421 -0.545424
-0.281683 0.544707 0.49171
-0.244857 -0.527378 0.545956
0.462857 -0.196482 0.477533
-0.570515 -0.210566 0.506893
-0.222881 0.467444 0.481134
-0.29541 0.407546 -0.452271
-0.210989 0.540102 0.395186
-0.20427 -0.507362 0.547672
0.491614 -0.281135 0.392294
-0.405132 -0.169166 0.522342
-0.298708 0.473951 0.463229
-0.272126 0.433538 -0.443291
-0.287521 0.452565 0.372862
-0.333484 -0.538725 0.512807
0.53702 -0.229375 0.513153
-0.501417 -0.21766 0.497081
-0.273244 0.443679 0.432621
-0.23446 0.469621 -0.558052
-0.327848 0.528901 0.480875
-0.249563 -0.509042 0.498966
0.580616 -0.208392 0.526466
-0.523095 -0.236572 0.501717
-0.285417 0.547518 0.472343
-0.238396 0.479273 -0.522363
-0.253592 0.540153 0.447001
-0.242541 -0.534549 0.435883
0.47563 -0.165172 0.500646
-0.479419 -0.203738 0.427814
-0.312093 0.553071 0.496442
-0.259343 0.441951 -0.447379
-0.190794 0.501097 0.552608
-0.195885 -0.522387 0.586303
0.474404 -0.211218 0.440242
-0.554737 -0.244311 0.487198
-0.245881 -0.592277 0.461504
-0.183041 -0.485091 -0.629585
-0.259673 0.572727 -0.505344
-0.192928 -0.415842 -0.538176
0.444385 -0.17527 -0.42147
-0.479294 -0.185372 -0.545597
-0.268918 -0.544961 0.469056
-0.219897 -0.562495 -0.542225
-0.304667 0.508345 -0.458641
-0.206818 -0.581144 -0.446814
0.517222 -0.149798 -0.522341
-0.598494 -0.295487 -0.518459
-0.194047 -0.5701 0.451565
-0.247557 -0.463876 -0.548095
-0.31814 0.530934 -0.416182
-0.288131 -0.453024 -0.426947
0.407356 -0.188122 -0.417522
-0.447482 -0.19864 -0.434997
-0.225038 -0.426891 0.46544
-0.191767 -0.449346 -0.592205
-0.200797 0.509321 -0.481767
-0.266162 -0.478708 -0.509524
0.487247 -0.256906 -0.492745
-0.543597 -0.302356 -0.428055
-0.252323 -0.556294 0.497367
-0.223561 -0.532663 -0.512051
-0.27656 0.444981 -0.577718
-0.245876 -0.510592 -0.461682
0.466198 -0.268158 -0.530154
-0.54696 -0.218474 -0.42224
-0.215201 -0.450947 0.441606
-0.386134 -0.488754 -0.442413
-0.242294 0.450954 -0.439792
-0.155326 -0.53855 -0.453867
0.441938 -0.119579 -0.418461
-0.525554 -0.248864 -0.482996
-0.27051 -0.421093 0.489087
-0.250561 -0.440441 -0.443535
-0.261713 0.464376 -0.397912
-0.264911 -0.566675 -0.478093
0.4914 -0.18201 -0.438651
-0.553269 -0.267696 -0.516467
-0.209327 -0.376558 0.513775
-0.317227 -0.390231 -0.523956
-0.16385 0.534672 -0.429988
-0.10022 -0.464497 -0.317238
0.498146 -0.191257 -0.403245
-0.522521 -0.244488 -0.395446
-0.182795 -0.487897 0.500244
-0.23154 -0.457262 -0.55066
-0.263399 0.369475 -0.434073
-0.343753 -0.458919 -0.378914
0.482133 -0.157536 -0.354536
-0.423115 -0.210203 -0.386913
-0.225013 -0.339346 0.478643
-0.205051 -0.353574 -0.497764
-0.239534 0.395394 -0.376176
-0.302183 -0.435688 -0.371459
0.45022 -0.296959 -0.395892
-0.597544 -0.20429 -0.428576
-0.204113 -0.431177 0.642798
-0.234496 -0.316082 -0.45743
-0.194078 0.572129 -0.408091
-0.206206 -0.50468 -0.424759
0.399409 -0.286216 -0.321077
-0.518357 -0.300138 -0.368586
-0.219596 -0.36177 0.454557
-0.272641 -0.395101 -0.566952
-0.29641 0.546198 -0.381482
-0.213308 -0.488644 -0.402571
0.486986 -0.312591 -0.448368
-0.531171 -0.221041 -0.418968
-0.229506 -0.327262 0.501128
-0.243272 -0.320014 -0.561252
-0.262222 0.55402 -0.358482
-0.269056 -0.463895 -0.348811
0.482175 -0.206931 -0.343281
-0.57703 -0.275178 -0.404988
-0.251557 -0.371573 0.517792
-0.231685 -0.377629 -0.52872
-0.259571 0.507186 -0.42229
-0.354086 -0.419682 -0.40592
0.479803 -0.279236 -0.340508
-0.522846 -0.23783 -0.285137
-0.251025 -0.295374 0.462493
-0.242443 -0.462303 -0.537055
-0.25089 0.505994 -0.398
-0.188894 -0.514855 -0.300208
0.497512 -0.219758 -0.397818
-0.593393 -0.202766 -0.319279
-0.22797 -0.298798 0.527126
-0.316163 -0.381095 -0.589758
-0.387248 0.516613 -0.303557
-0.198261 -0.486757 -0.33753
0.526363 -0.178453 -0.335454
-0.477903 -0.235419 -0.293936
-0.129139 -0.36917 0.507277
-0.173263 -0.395751 -0.52655
-0.221855 0.408039 -0.414918
-0.192587 -0.440954 -0.340211
0.614123 -0.239984 -0.371487
-0.515371 -0.142128 -0.270183
-0.204279 -0.311498 0.481138
-0.244506 -0.346687 -0.408689
-0.284088 0.544542 -0.367908
-0.266001 -0.404704 -0.407875
0.499313 -0.183141 -0.271622
-0.388419 -0.201361 -0.413012
-0.244275 -0.317121 0.411421
-0.183933 -0.346159 -0.541902
-0.270284 0.542992 -0.293847
-0.28323 -0.504616 -0.371507
0.559332 -0.329084 -0.267091
-0.43888 -0.159008 -0.378862
-0.218318 -0.32733 0.478881
-0.3422 -0.286823 -0.432193
-0.292928 0.482991 -0.333844
-0.289206 -0.536215 -0.244545
0.43428 -0.221382 -0.254177
-0.406303 -0.258461 -0.347872
-0.260815 -0.337335 0.412137
-0.148602 -0.361147 -0.475274
-0.201149 0.457491 -0.258021
-0.187701 -0.501049 -0.246998
0.410368 -0.254712 -0.313413
-0.514448 -0.22952 -0.313565
-0.267623 -0.332033 0.489493
-0.259224 -0.296958 -0.500092
-0.304899 0.517081 -0.268119
-0.240421 -0.440198 -0.32634
0.530455 -0.283241 -0.349076
-0.411832 -0.227203 -0.322018
-0.318295 -0.369169 0.49358
-0.288505 -0.24018 -0.493005
-0.272128 0.500119 -0.272183
-0.166415 -0.452741 -0.370121
0.603985 -0.201323 -0.27585
-0.484372 -0.360029 -0.202527
-0.129375 -0.167428 0.577503
-0.156119 -0.307877 -0.498421
-0.244009 0.369801 -0.232601
-0.165045 -0.469906 -0.322404
0.412405 -0.278486 -0.264804
-0.403262 -0.197114 -0.214281
-0.339852 -0.228401 0.363611
-0.201676 -0.313646 -0.50547
-0.366424 0.499903 -0.127072
-0.326503 -0.482668 -0.317312
0.541893 -0.277209 -0.214544
-0.529395 -0.243562 -0.297777
-0.212439 -0.233503 0.508536
-0.187804 -0.259895 -0.390593
-0.272654 0.541024 -0.275248
-0.268286 -0.545236 -0.239264
0.48767 -0.171926 -0.402959
-0.524012 -0.21251 -0.215017
-0.172552 -0.270553 0.585565
-0.199564 -0.20734 -0.527378
-0.216929 0.508948 -0.304578
-0.134992 -0.471638 -0.13694
0.52805 -0.20122 -0.243779
-0.493644 -0.290234 -0.282023
-0.246586 -0.253459 0.406057
-0.306262 -0.195004 -0.459234
-0.278658 0.49516 -0.214155
-0.308381 -0.431411 -0.284768
0.437996 -0.218361 -0.160842
-0.464152 -0.271275 -0.21112
-0.232112 -0.23907 0.4646
-0.274106 -0.214358 -0.520809
-0.219707 0.493998 -0.167534
-0.19292 -0.467342 -0.184332
0.530557 -0.233 -0.154745
-0.507747 -0.245776 -0.165203
-0.167334 -0.232866 0.450096
-0.137617 -0.121655 -0.494135
-0.236444 0.542935 -0.208457
-0.283048 -0.459153 -0.159125
0.535954 -0.287586 -0.0319192
-0.558227 -0.290419 -0.178301
-0.159217 -0.164126 0.468632
-0.245449 -0.0864094 -0.550328
-0.27789 0.560838 -0.20222
-0.165029 -0.486571 -0.296741
0.491876 -0.149915 -0.171483
-0.441587 -0.167098 -0.131675
-0.192629 -0.210732 0.510965
-0.23264 -0.162109 -0.452213
-0.137565 0.497357 -0.155161
-0.180466 -0.545719 -0.145673
0.484641 -0.162777 -0.226039
-0.454087 -0.202315 -0.21445
-0.23896 -0.20291 0.530186
-0.205621 -0.144338 -0.494009
-0.199156 0.618893 -0.191973
-0.264696 -0.473976 -0.238939
0.537992 -0.180506 -0.219093
-0.484794 -0.15484 -0.187152
-0.191169 -0.120387 0.588954
-0.221427 -0.157067 -0.494884
-0.219653 0.566065 -0.232475
-0.215071 -0.582854 -0.17575
0.508416 -0.214355 -0.14761
-0.524377 -0.273603 -0.133654
-0.200722 -0.0775825 0.5291
-0.271595 -0.224764 -0.448099
-0.273498 0.464085 -0.17107
-0.212571 -0.546513 -0.149076
0.506175 -0.228873 -0.239788
-0.415502 -0.226906 -0.179438
-0.192438 -0.125151 0.500549
-0.296831 -0.16499 -0.544598
-0.324702 0.562628 -0.23016
-0.429617 -0.444258 -0.255503
0.56352 -0.247477 -0.0545329
-0.475415 -0.159124 -0.17094
-0.165879 -0.182056 0.474183
-0.275082 -0.195167 -0.602964
-0.287458 0.515273 -0.116899
-0.233425 -0.580804 -0.0556799
0.419454 -0.204732 -0.082227
-0.463423 -0.253471 -0.23959
-0.210198 -0.073301 0.584394
-0.164419 -0.0911613 -0.376788
-0.179766 0.608197 -0.0760464
-0.19183 -0.544078 -0.0777664
0.491884 -0.209293 -0.152257
-0.560341 -0.210573 -0.110838
-0.24359 -0.102748 0.503728
-0.255079 -0.12188 -0.540127
-0.224675 0.549934 -0.163815
-0.267123 -0.432255 -0.0736899
0.450909 -0.293364 -0.182
-0.653439 -0.227628 -0.225543
-0.291702 0.0240371 0.455922
-0.175994 -0.110874 -0.454248
-0.158425 0.437973 -0.0393516
-0.149894 -0.482196 -0.117014
0.505178 -0.278915 -0.187686
-0.533474 -0.184833 -0.0996934
-0.334829 -0.175379 0.498734
-0.244579 -0.119194 -0.409667
-0.194531 0.503092 -0.0658889
-0.249377 -0.50179 -0.134846
0.445289 -0.300874 -0.0990793
-0.448069 -0.147823 -0.103647
-0.250955 -0.0629367 0.534844
-0.301899 -0.138383 -0.487133
-0.335468 0.504228 -0.100582
-0.192741 -0.485394 -0.0410424
0.527438 -0.230904 -0.0285493
-0.549322 -0.265652 -0.0775757
-0.211234 -0.0980277 0.468567
-0.245259 -0.0658082 -0.555347
-0.266351 0.557967 -0.0926287
-0.295595 -0.483146 -0.0498831
0.468185 -0.253808 -0.0774497
-0.517032 -0.195877 -0.0172528
-0.142878 -0.104193 0.497035
-0.291296 -0.0414961 -0.496891
-0.25733 0.488342 -0.0698906
-0.246259 -0.506256 0.0148628
0.608792 -0.101623 -0.123573
-0.570099 -0.191404 -0.0593738
-0.262165 0.00620059 0.501385
-0.225814 -0.0411934 -0.531689
-0.237126 0.537896 -0.0338255
-0.22648 -0.476243 -0.0902682
0.472732 -0.285462 -0.0794165
-0.576826 -0.271025 -0.110363
-0.224789 -0.0540787 0.507978
-0.224565 -0.084371 -0.516897
-0.216826 0.418065 -0.060629
-0.304248 -0.482501 -0.0541448
0.434085 -0.305113 -0.0770206
-0.41419 -0.181704 -0.0116423
-0.150496 0.0766624 0.519819
-0.294609 -0.0713199 -0.447405
-0.227914 0.515013 -0.0314137
-0.254399 -0.406809 -0.0284707
0.513265 -0.307605 -0.020964
-0.449168 -0.182894 -0.0524598
-0.179271 0.0441356 0.511497
-0.235856 -0.120835 -0.548305
-0.209054 0.427432 0.0158681
-0.303783 -0.556194 -0.0327501
0.554801 -0.286916 0.0270215
-0.410854 -0.236258 -0.0496733
-0.152558 -0.0856346 0.623086
-0.335608 0.0214052 -0.475204
-0.247277 0.57165 -0.0115145
-0.143766 -0.421336 -0.0434691
0.478959 -0.279947 -0.0195945
-0.516635 -0.197021 0.0259081
-0.15411 0.00564099 0.521882
-0.223806 -0.0742894 -0.508865
-0.225226 0.562395 0.0134881
-0.249713 -0.535683 0.0583166
0.474242 -0.189024 -0.000319205
-0.468756 -0.319992 0.0471949
-0.249105 -0.0112672 0.527645
-0.254983 -0.151462 -0.523675
-0.208483 0.51454 -0.0493412
-0.285565 -0.485336 -0.0274124
0.514854 -0.134458 -0.0628851
-0.505804 -0.270125 -0.0328741
-0.303021 0.00250874 0.495358
-0.270036 0.0121734 -0.423665
-0.289302 0.51464 0.0357762
-0.231435 -0.521133 -0.000925396
0.46232 -0.135121 0.0693263
-0.529837 -0.162317 -0.0558144
-0.19504 0.0329092 0.521823
-0.144217 0.0438711 -0.571666
-0.261086 0.574898 0.09886
-0.170642 -0.436258 0.0131635
0.480505 -0.213239 0.0663799
-0.574846 -0.279958 -0.0249119
-0.267163 -0.0185791 0.432225
-0.241329 0.061034 -0.54556
-0.262252 0.525285 0.0767687
-0.152316 -0.532928 0.0647833
0.515146 -0.206766 0.0295418
-0.473272 -0.280815 0.084253
-0.323193 0.11285 0.582323
-0.294225 0.0265587 -0.489417
-0.248972 0.506454 0.00594755
-0.315796 -0.588517 0.0627211
0.507155 -0.243879 -0.0309424
-0.512056 -0.139532 0.0808627
-0.293169 0.0475313 0.555234
-0.252885 0.113909 -0.510571
-0.273492 0.53913 0.0731168
-0.204611 -0.472336 -0.0596767
0.613904 -0.190306 0.065646
-0.48306 -0.194756 0.0747321
-0.258524 0.109806 0.51601
-0.248712 0.111096 -0.488642
-0.190788 0.576628 0.123694
-0.187821 -0.512557 0.00991684
0.57281 -0.242392 0.0888456
-0.455003 -0.24259 0.0948494
-0.299005 -0.0331301 0.510869
-0.28613 0.0491062 -0.438396
-0.141106 0.542011 0.158997
-0.17903 -0.501832 0.0752491
0.50545 -0.274515 0.0854074
-0.523143 -0.152055 0.0231577
-0.165771 0.0460194 0.490835
-0.15409 -0.0481631 -0.515795
-0.299026 0.502671 0.0367619
-0.246408 -0.578147 0.151703
0.57975 -0.229342 0.103724
-0.527051 -0.282546 0.0943106
-0.212187 0.0763432 0.507943
-0.261089 0.0509727 -0.561717
-0.235547 0.502365 0.0904481
-0.160025 -0.516361 0.0387164
0.466407 -0.336938 0.0579565
-0.571272 -0.344506 0.0437158
-0.246369 0.146089 0.522065
-0.187412 0.0780624 -0.519426
-0.23503 0.487825 0.0750386
-0.238482 -0.511116 0.159099
0.540437 -0.15957 0.158127
-0.444157 -0.191815 0.171459
-0.213021 0.136354 0.504441
-0.272788 0.135435 -0.532144
-0.241771 0.486915 0.0798342
-0.277926 -0.425806 0.0751081
0.499989 -0.270483 0.0103632
-0.523687 -0.191624 0.161702
-0.19233 0.115405 0.527991
-0.278226 0.143886 -0.501097
-0.321257 0.548579 0.0748852
-0.26208 -0.478792 0.220371
0.546233 -0.174642 0.047668
-0.516154 -0.229027 0.113697
-0.243037 0.131055 0.508799
-0.232358 0.08786 -0.415494
-0.167552 0.469689 0.152737
-0.237557 -0.469282 0.13177
0.480206 -0.271839 0.136327
-0.504015 -0.234437 0.141892
-0.211729 0.172007 0.579244
-0.247095 0.206388 -0.644437
-0.172808 0.482296 0.104687
-0.244119 -0.598018 0.132591
0.476088 -0.263193 0.166145
-0.589857 -0.258728 0.0735964
-0.22907 0.0465406 0.452325
-0.221173 0.20824 -0.574735
-0.183926 0.497282 0.120929
-0.197419 -0.439492 0.190611
0.510551 -0.187605 0.1396
-0.543522 -0.252447 0.0615722
-0.261468 0.16132 0.434061
-0.29935 0.188008 -0.526589
-0.322049 0.5377 0.179904
-0.299605 -0.447342 0.0779761
0.504918 -0.203304 0.147606
-0.518119 -0.306982 0.193978
-0.205939 0.230954 0.506435
-0.308218 0.0810425 -0.477421
-0.202698 0.444136 0.29661
-0.240844 -0.439943 0.179811
0.465491 -0.206936 0.23704
-0.484038 -0.178472 0.133862
-0.191422 0.237285 0.546887
-0.286319 0.101277 -0.538706
-0.21419 0.504427 0.113981
-0.257126 -0.556616 0.224972
0.514057 -0.238724 0.169469
-0.424213 -0.302679 0.20392
-0.349758 0.230843 0.512616
-0.224295 0.182221 -0.496012
-0.318007 0.554846 0.220383
-0.319137 -0.499926 0.132638
0.412017 -0.225896 0.192975
-0.462499 -0.251675 0.220258
-0.249672 0.246948 0.507235
-0.195055 0.215533 -0.549954
-0.219276 0.440687 0.21541
-0.264207 -0.613365 0.273401
0.555644 -0.243757 0.225014
-0.524761 -0.278478 0.164139
-0.218198 0.184123 0.5225
-0.144805 0.190375 -0.52902
-0.281332 0.425804 0.204212
-0.254984 -0.534036 0.334461
0.606982 -0.157695 0.160657
-0.541654 -0.230815 0.168023
-0.210037 0.17779 0.380293
-0.302458 0.288563 -0.591173
-0.285512 0.478168 0.156787
-0.267725 -0.45655 0.189124
0.48648 -0.305977 0.242015
-0.485844 -0.327416 0.262846
-0.211531 0.193564 0.5289
-0.28996 0.296213 -0.44145
-0.314511 0.507289 0.255999
-0.277722 -0.497221 0.222898
0.436861 -0.212305 0.167067
-0.569733 -0.284355 0.298107
-0.235263 0.223006 0.550618
-0.290007 0.261945 -0.366699
-0.251111 0.43721 0.199851
-0.237527 -0.461001 0.18508
0.550172 -0.231966 0.212488
-0.419312 -0.400082 0.237679
-0.251002 0.233792 0.484551
-0.226508 0.21366 -0.460616
-0.309074 0.525126 0.227935
-0.16592 -0.511075 0.248732
0.4743 -0.221586 0.224598
-0.515883 -0.165871 0.283291
-0.238201 0.306103 0.552348
-0.222629 0.235772 -0.414616
-0.172353 0.441777 0.317246
-0.329757 -0.482031 0.297116
0.613165 -0.316958 0.31508
-0.512157 -0.218338 0.328426
-0.223315 0.216606 0.468754
-0.195579 0.28399 -0.482868
-0.280575 0.498481 0.309608
-0.215374 -0.505801 0.260528
0.499879 -0.177347 0.336261
-0.444902 -0.273181 0.303789
-0.251359 0.218806 0.510039
-0.203933 0.291063 -0.501614
-0.29342 0.468863 0.326618
-0.206185 -0.480637 0.271047
0.558747 -0.201441 0.291648
-0.544483 -0.185994 0.330256
-0.282386 0.315405 0.470401
-0.195839 0.3282 -0.418774
-0.21982 0.56953 0.313018
-0.206656 -0.55031 0.257868
0.459938 -0.272214 0.331133
-0.539105 -0.144537 0.324899
-0.262716 0.36303 0.480763
-0.218534 0.270142 -0.53901
-0.221133 0.567448 0.350846
-0.252689 -0.421568 0.346194
0.484709 -0.21177 0.346046
-0.532967 -0.218887 0.344485
-0.354131 0.266826 0.48222
-0.256383 0.301511 -0.481092
-0.29104 0.519795 0.291601
-0.141644 -0.444508 0.344356
0.467776 -0.234665 0.338831
-0.491097 -0.218115 0.364465
-0.225732 0.300175 0.478318
-0.218633 0.304896 -0.552861
-0.278003 0.495783 0.40158
-0.148472 -0.446508 0.339512
0.383745 -0.275635 0.317832
-0.551287 -0.306385 0.353697
-0.246414 0.283298 0.498606
-0.227555 0.35717 -0.486766
-0.287967 0.513241 0.350532
-0.189749 -0.555843 0.267883
0.515943 -0.151345 0.220125
-0.464471 -0.280995 0.324869
-0.260295 0.301643 0.534237
-0.299788 0.308357 -0.49238
-0.309505 0.493287 0.311403
-0.192533 -0.601511 0.295952
0.493135 -0.206739 0.327993
-0.486939 -0.31224 0.345394
-0.197761 0.390204 0.421577
-0.244422 0.395957 -0.551608
-0.294605 0.473414 0.293643
-0.229176 -0.420526 0.344546
0.410487 -0.26944 0.361249
-0.570195 -0.262399 0.354154
-0.197868 0.342632 0.489138
-0.274676 0.326478 -0.498421
-0.235125 0.457978 0.411949
-0.202907 -0.502655 0.301739
0.481043 -0.339365 0.34326
-0.486133 -0.325801 0.366064
-0.1862 0.415315 0.400102
-0.215033 0.381659 -0.535137
-0.283873 0.520853 0.475354
-0.248633 -0.530337 0.384312
0.487443 -0.282435 0.37944
-0.43308 -0.215938 0.404337
-0.216131 0.296764 0.507317
-0.256308 0.375389 -0.414474
-0.19282 0.518002 0.326336
-0.270033 -0.475103 0.401723
0.513221 -0.240088 0.332792
-0.527755 -0.277671 0.392601
-0.208762 0.376737 0.534173
-0.182053 0.42718 -0.530892
-0.257722 0.556744 0.42493
-0.241209 -0.500644 0.477168
0.448168 -0.313067 0.361375
-0.484579 -0.229642 0.475998
-0.15481 0.207323 0.433218
-0.193614 0.356022 -0.500791
-0.275522 0.49025 0.337836
-0.14691 -0.455755 0.364689
0.435656 -0.159996 0.432838
-0.518153 -0.263128 0.408267
-0.239191 0.412273 0.518496
-0.235481 0.48508 -0.484835
-0.295669 0.601028 0.51089
-0.186414 -0.526552 0.395466
0.464349 -0.212754 0.345945
-0.581381 -0.297838 0.350285
-0.28319 0.426344 0.477617
-0.201815 0.509517 -0.443189
-0.172887 0.535671 0.416088
-0.262574 -0.485335 0.501288
0.498049 -0.134988 0.324533
-0.438426 -0.228395 0.283934
-0.273056 0.384765 0.472179
-0.186185 0.361398 -0.528998
-0.256791 0.511656 0.475273
-0.2856 -0.542247 0.477945
0.464846 -0.286884 0.481422
-0.484045 -0.245602 0.497862
-0.252957 0.430098 0.522123
-0.167982 0.38444 -0.465977
-0.176312 0.507519 0.451235
-0.280757 -0.519343 0.445207
0.592621 -0.181617 0.502899
-0.542997 -0.318751 0.44954
-0.212944 0.456257 0.375256
-0.209394 0.43201 -0.496324
-0.216159 0.50937 0.490863
-0.267698 -0.581941 0.482901
0.432283 -0.272698 0.43422
-0.476385 -0.317441 0.497905
-0.159988 0.445278 0.453452
-0.154297 0.454484 -0.505133
-0.317592 0.519937 0.482922
-0.216011 -0.545338 0.481141
0.597697 -0.197501 0.482568
-0.534806 -0.259332 0.50699
-0.308768 0.413493 0.500225
-0.28236 0.435426 -0.48343
-0.34373 0.528635 0.5574
-0.251263 -0.470616 0.504622
0.523788 -0.270841 0.441226
-0.491854 -0.249991 0.606979
-0.20093 0.452993 0.387546
-0.138783 0.462635 -0.515789
-0.259256 0.456547 0.470821
-0.158232 -0.560014 0.500533
0.529061 -0.195194 0.657976
-0.518931 -0.285055 0.491766
-0.210954 0.445988 0.443343
-0.136127 0.528915 -0.513714
-0.180873 0.566341 0.549497
-0.270983 -0.468237 0.492723
0.360851 -0.287243 0.493528
-0.524394 -0.273126 0.548125
-0.241514 -0.536775 0.562306
-0.215657 -0.536828 -0.481464
-0.253021 0.425663 -0.497862
-0.162573 -0.554514 -0.613195
0.500109 -0.296141 -0.465603
-0.440082 -0.212426 -0.454785
-0.188027 -0.464812 0.436314
-0.286911 -0.447109 -0.485769
-0.17988 0.456434 -0.530492
-0.158718 -0.453898 -0.447478
0.453384 -0.145395 -0.462103
-0.417841 -0.238678 -0.591168
-0.256019 -0.48916 0.520264
-0.255296 -0.563931 -0.551758
-0.223208 0.44584 -0.592852
-0.244331 -0.573475 -0.506535
0.406163 -0.159205 -0.422298
-0.521624 -0.172303 -0.511344
-0.273801 -0.383617 0.542424
-0.247339 -0.448801 -0.441088
-0.244453 0.476867 -0.435931
-0.192261 -0.48278 -0.452801
0.479092 -0.246641 -0.401638
-0.565107 -0.323882 -0.448939
-0.177872 -0.463608 0.590295
-0.386993 -0.490449 -0.518912
-0.2283 0.503083 -0.426572
-0.182559 -0.53755 -0.533717
0.540472 -0.159168 -0.39789
-0.484869 -0.200774 -0.41334
-0.315026 -0.373934 0.467716
-0.202821 -0.531858 -0.427043
-0.25365 0.420724 -0.446736
-0.279108 -0.565254 -0.473442
0.549945 -0.259609 -0.515318
-0.490015 -0.161076 -0.418607
-0.189401 -0.433662 0.538221
-0.243493 -0.426619 -0.455384
-0.288586 0.449198 -0.462948
-0.260335 -0.590849 -0.404315
0.536134 -0.242093 -0.509881
-0.434937 -0.214628 -0.361859
-0.197324 -0.387026 0.530181
-0.14336 -0.433322 -0.556435
-0.16281 0.48498 -0.467645
-0.118823 -0.53799 -0.429138
0.572303 -0.261346 -0.448689
-0.657167 -0.223025 -0.406208
-0.295566 -0.407867 0.51375
-0.272043 -0.465818 -0.425544
-0.208847 0.486019 -0.509059
-0.236471 -0.459461 -0.431533
0.536699 -0.271049 -0.435789
-0.43454 -0.266732 -0.475751
-0.168144 -0.403176 0.453744
-0.150317 -0.561699 -0.523892
-0.256766 0.56345 -0.415055
-0.217523 -0.534249 -0.399324
0.489355 -0.194615 -0.451659
-0.512785 -0.303063 -0.401076
-0.178287 -0.387388 0.538373
-0.230697 -0.335321 -0.451003
-0.262251 0.469464 -0.380886
-0.198046 -0.489894 -0.411274
0.552538 -0.194977 -0.425879
-0.463667 -0.0999268 -0.411073
-0.193095 -0.373229 0.455728
-0.253784 -0.393103 -0.485171
-0.310981 0.509865 -0.381687
-0.249123 -0.439437 -0.355867
0.521009 -0.199074 -0.342873
-0.428398 -0.235319 -0.368639
-0.171974 -0.41313 0.473934
-0.130022 -0.366482 -0.468537
-0.271384 0.486068 -0.429635
-0.394984 -0.45721 -0.38667
0.476982 -0.17897 -0.384836
-0.597953 -0.280651 -0.385277
-0.209429 -0.36614 0.481879
-0.242459 -0.324152 -0.484919
-0.274677 0.525337 -0.400622
-0.141403 -0.446157 -0.304785
0.491193 -0.169568 -0.387475
-0.478734 -0.29479 -0.405607
-0.174228 -0.292538 0.536956
-0.13974 -0.309959 -0.480901
-0.22063 0.525049 -0.368631
-0.157344 -0.501677 -0.370664
0.412944 -0.272136 -0.294285
-0.544429 -0.265377 -0.346398
-0.227181 -0.356985 0.521894
-0.317702 -0.377098 -0.351854
-0.271676 0.473949 -0.370514
-0.172793 -0.429556 -0.291549
0.417145 -0.225627 -0.345361
-0.534674 -0.301117 -0.338193
-0.155675 -0.335905 0.484453
-0.31405 -0.328165 -0.486578
-0.193577 0.415406 -0.424914
-0.258892 -0.417767 -0.267685
0.446531 -0.165138 -0.32326
-0.505641 -0.348699 -0.406837
-0.155464 -0.297932 0.495442
-0.217984 -0.326995 -0.538665
-0.210975 0.577306 -0.377303
-0.248214 -0.528204 -0.268716
0.465733 -0.221303 -0.308775
-0.569021 -0.220822 -0.287865
-0.303496 -0.329818 0.525418
-0.148267 -0.284085 -0.516379
-0.262608 0.492863 -0.359571
-0.204462 -0.596565 -0.284408
0.464936 -0.178263 -0.375745
-0.530527 -0.256965 -0.254996
-0.223466 -0.296181 0.54841
-0.326241 -0.387776 -0.446074
-0.172021 0.574437 -0.434601
-0.25009 -0.46692 -0.299851
0.450985 -0.237422 -0.351244
-0.488768 -0.284268 -0.302714
-0.303442 -0.306385 0.48254
-0.189073 -0.245635 -0.500014
-0.155562 0.567626 -0.370524
-0.237178 -0.57236 -0.276089
0.517935 -0.158266 -0.275036
-0.498894 -0.229862 -0.258583
-0.34312 -0.250465 0.486308
-0.261204 -0.214914 -0.615332
-0.257877 0.527549 -0.301984
-0.224993 -0.48992 -0.32186
0.499571 -0.13342 -0.261717
-0.508161 -0.248493 -0.282975
-0.311482 -0.34873 0.448879
-0.248297 -0.249847 -0.43495
-0.162548 0.405348 -0.304114
-0.318783 -0.524368 -0.212161
0.412699 -0.244173 -0.339279
-0.484384 -0.213146 -0.221926
-0.268188 -0.216035 0.460519
-0.205868 -0.275302 -0.550886
-0.274937 0.505381 -0.250327
-0.19453 -0.543706 -0.180454
0.503476 -0.181144 -0.243567
-0.529439 -0.172262 -0.270402
-0.238989 -0.168559 0.587916
-0.24096 -0.233093 -0.511458
-0.235673 0.41465 -0.290351
-0.28417 -0.526952 -0.240122
0.551161 -0.149923 -0.273301
-0.436471 -0.239543 -0.233138
-0.20839 -0.24053 0.558888
-0.253389 -0.287088 -0.492847
-0.299065 0.473133 -0.241799
-0.226504 -0.444511 -0.189696
0.515388 -0.244096 -0.241318
-0.45954 -0.311562 -0.225629
-0.195543 -0.162567 0.499594
-0.157741 -0.330799 -0.504651
-0.211673 0.528867 -0.283403
-0.235847 -0.558432 -0.169606
0.514506 -0.25473 -0.311336
-0.436046 -0.21961 -0.258089
-0.206617 -0.20902 0.568858
-0.270857 -0.328212 -0.593057
-0.206488 0.477206 -0.162092
-0.328025 -0.551964 -0.204313
0.536354 -0.204042 -0.232264
-0.550049 -0.279024 -0.295516
-0.188307 -0.28399 0.531705
-0.273894 -0.280553 -0.465587
-0.295094 0.495698 -0.247197
-0.157561 -0.443623 -0.185781
0.610012 -0.247315 -0.131445
-0.461543 -0.21948 -0.263376
-0.300369 -0.228193 0.482447
-0.22763 -0.171823 -0.526706
-0.177549 0.536937 -0.219467
-0.25529 -0.497886 -0.178929
0.513197 -0.224899 -0.271427
-0.531354 -0.21671 -0.297643
-0.25562 -0.194025 0.530847
-0.155565 -0.278403 -0.463276
-0.234088 0.447452 -0.183113
-0.159909 -0.484268 -0.164556
0.476267 -0.200048 -0.20778
-0.447287 -0.223453 -0.102037
-0.131167 -0.164552 0.53536
-0.227343 -0.188302 -0.477329
-0.321403 0.494157 -0.156077
-0.14003 -0.45728 -0.266891
0.484525 -0.263096 -0.18121
-0.486645 -0.225431 -0.217034
-0.272707 -0.166687 0.546119
-0.235451 -0.265783 -0.440972
-0.198745 0.524473 -0.188873
-0.254782 -0.496671 -0.189192
0.490617 -0.272845 -0.185469
-0.54798 -0.239739 -0.213884
-0.307071 -0.171393 0.542392
-0.178707 -0.153214 -0.512455
-0.124768 0.419588 -0.12905
-0.255323 -0.500225 -0.211563
0.442827 -0.138397 -0.0574637
-0.516237 -0.15524 -0.184791
-0.240923 -0.134054 0.489631
-0.193964 -0.154471 -0.506187
-0.288141 0.483999 -0.13627
-0.233841 -0.519915 -0.0865828
0.566608 -0.258822 -0.246072
-0.503949 -0.182823 -0.223186
-0.14554 -0.0606049 0.501113
-0.125713 -0.102533 -0.60902
-0.187064 0.472538 -0.239646
-0.272107 -0.540014 -0.12619
0.439309 -0.300404 -0.198717
-0.501154 -0.232799 -0.147147
-0.161718 -0.0599356 0.505013
-0.205446 -0.198252 -0.562683
-0.257223 0.576234 -0.123191
-0.203358 -0.512558 -0.23549
0.487464 -0.234664 -0.152968
-0.540176 -0.136065 -0.112177
-0.270144 -0.200623 0.392432
-0.237962 -0.141948 -0.527478
-0.203955 0.458085 -0.104897
-0.16783 -0.524751 -0.0970573
0.465788 -0.164155 -0.0836069
-0.446857 -0.203508 -0.113306
-0.130756 -0.137509 0.589218
-0.241439 0.0227708 -0.429015
-0.160736 0.572398 -0.0104063
-0.239758 -0.438035 -0.08053
0.426047 -0.198424 -0.0922533
-0.544132 -0.207987 -0.0866845
-0.213719 -0.189093 0.531796
-0.234065 -0.113347 -0.508429
-0.267863 0.532546 -0.0548086
-0.195762 -0.565457 -0.114785
0.508543 -0.202268 0.0566285
-0.477872 -0.238947 -0.0523586
-0.21255 -0.077873 0.532337
-0.216258 -0.0707798 -0.561748
-0.373289 0.423349 -0.149472
-0.282686 -0.553573 -0.0674002
0.460615 -0.210348 -0.217712
-0.412686 -0.185825 -0.132108
-0.124446 -0.0715144 0.451493
-0.303691 -0.179857 -0.547055
-0.335807 0.483482 -0.0372753
-0.302428 -0.504585 -0.0698899
0.541033 -0.12812 -0.0976831
-0.438231 -0.180459 0.00489145
-0.277855 -0.0947537 0.550719
-0.251677 -0.0378706 -0.490508
-0.26991 0.563224 -0.0853784
-0.24736 -0.436283 -0.0753538
0.507395 -0.17134 -0.0679184
-0.467183 -0.263548 -0.133175
-0.230178 -0.0686158 0.535382
-0.259109 -0.0723276 -0.523197
-0.20894 0.519568 -0.076805
-0.272529 -0.495851 -0.0580003
0.463643 -0.231415 -0.0201062
-0.553089 -0.222134 -0.0605815
-0.231992 0.0148155 0.44274
-0.243171 -0.0150746 -0.512596
-0.213273 0.543393 -0.122143
-0.254316 -0.483779 0.0207259
0.49727 -0.212326 -0.190568
-0.410805 -0.277907 -0.143651
-0.242452 -0.0807268 0.511192
-0.178508 0.0401022 -0.538339
-0.213089 0.435191 -0.00116836
-0.17569 -0.469516 -0.127834
0.545288 -0.230001 -0.0597287
-0.451567 -0.271083 0.0109896
-0.255084 0.10175 0.418263
-0.258193 -0.0896306 -0.530403
-0.221235 0.557647 0.025613
-0.200434 -0.518702 -0.00445033
0.502428 -0.252725 0.0488131
-0.508024 -0.191756 -0.0632564
-0.224228 -0.0621004 0.52275
-0.224417 -0.00987058 -0.560432
-0.250943 0.6237 0.00238653
-0.281004 -0.486271 -0.0292758
0.577216 -0.217005 -0.0476185
-0.591032 -0.187215 -0.142741
-0.296452 -0.100761 0.528907
-0.181804 0.034441 -0.464268
-0.25799 0.633017 0.00176467
-0.357452 -0.504773 -0.00745682
0.480818 -0.20256 -0.110364
-0.546177 -0.23237 -0.0116531
-0.256063 -0.00601167 0.521467
-0.24283 0.0529121 -0.536803
-0.16707 0.490112 0.00782809
-0.276754 -0.484074 0.0332512
0.516177 -0.311791 -0.0550989
-0.529211 -0.243784 0.00468455
-0.165868 -0.0613603 0.564036
-0.212923 0.0975329 -0.467433
-0.335996 0.550946 0.00950286
-0.210482 -0.518034 0.0895616
0.384161 -0.223477 -0.0696673
-0.501278 -0.233629 -0.0377798
-0.30502 0.0318084 0.505819
-0.169147 -0.0436215 -0.501514
-0.191719 0.490737 -0.0394998
-0.289305 -0.430858 -0.0754041
0.403428 -0.22898 -0.0129327
-0.505973 -0.237999 0.0141491
-0.249206 0.0834286 0.476642
-0.216184 0.0341538 -0.408969
-0.18691 0.441008 0.0264927
-0.235646 -0.551231 0.00726972
0.514848 -0.214119 -0.0157851
-0.469055 -0.287488 0.0133761
-0.181408 0.06153 0.420647
-0.177433 0.0570528 -0.453213
-0.193171 0.524838 0.0233909
-0.207341 -0.44416 0.0261653
0.533961 -0.225459 0.0422146
-0.439375 -0.231975 0.00902598
-0.263027 0.0963139 0.469181
-0.208427 0.0920166 -0.462573
-0.250408 0.557861 0.0650802
-0.287775 -0.503825 0.0598441
0.533273 -0.238038 0.0623834
-0.478844 -0.270276 -0.0165288
-0.240778 0.123862 0.502675
-0.212171 0.0258632 -0.49546
-0.136232 0.477722 -0.0164826
-0.21252 -0.521754 0.0449328
0.469394 -0.234306 0.0784254
-0.568928 -0.247104 0.132312
-0.179284 0.168335 0.506086
-0.245833 0.0179059 -0.492941
-0.279004 0.42431 0.146868
-0.265308 -0.534933 -0.00401906
0.518523 -0.242538 0.0234988
-0.463597 -0.267401 -0.0445618
-0.226664 0.150577 0.484859
-0.28978 -0.0139823 -0.505174
-0.276939 0.443488 0.00722994
-0.180883 -0.521846 0.0440822
0.453083 -0.151089 0.051679
-0.520092 -0.210074 0.0834535
-0.218586 0.166548 0.517119
-0.246629 0.065825 -0.398517
-0.138704 0.447498 0.032214
-0.202417 -0.499039 0.0770071
0.558196 -0.109016 0.11296
-0.506829 -0.147011 0.137291
-0.320258 0.181545 0.512796
-0.205735 0.105823 -0.4975
-0.151327 0.487212 0.0722164
-0.174133 -0.421495 0.153473
0.531426 -0.267694 0.138155
-0.460202 -0.208276 0.114779
-0.197049 0.171408 0.478312
-0.313586 0.0702817 -0.445944
-0.263031 0.572573 0.0845397
-0.192909 -0.447041 0.0425039
0.512575 -0.243986 0.179473
-0.560726 -0.231921 0.111321
-0.253627 0.0513277 0.470863
-0.245628 0.100501 -0.567705
-0.196771 0.516245 0.110719
-0.206429 -0.516472 0.141942
0.518641 -0.26871 0.149998
-0.511814 -0.238142 -0.0189332
-0.176757 0.2176 0.481598
-0.220662 0.100344 -0.439284
-0.205286 0.535185 0.145041
-0.287094 -0.506512 0.220816
0.465588 -0.234348 0.100152
-0.401394 -0.221142 0.168244
-0.30098 0.216591 0.518755
-0.253504 0.110057 -0.468742
-0.175587 0.410434 0.182251
-0.260591 -0.449923 0.140949
0.591815 -0.202759 0.143643
-0.464537 -0.118694 0.140784
-0.221196 0.131171 0.534505
-0.178548 0.112566 -0.495952
-0.266725 0.515483 0.169403
-0.219663 -0.54395 0.179256
0.424659 -0.182751 0.160107
-0.450668 -0.288096 0.166274
-0.188695 0.173579 0.489882
-0.26537 0.199212 -0.452272
-0.245234 0.467922 0.190999
-0.0965003 -0.481184 0.192967
0.452897 -0.201278 0.169615
-0.549056 -0.247998 0.168504
-0.361531 0.170824 0.455479
-0.196516 0.15019 -0.537578
-0.166847 0.478347 0.179359
-0.236527 -0.466553 0.143383
0.560728 -0.143405 0.123526
-0.490196 -0.257894 0.190194
-0.228149 0.144241 0.539532
-0.237401 0.214834 -0.446329
-0.112527 0.495114 0.051287
-0.291079 -0.497692 0.251672
0.52183 -0.165736 0.084886
-0.535031 -0.295626 0.202087
-0.244307 0.221921 0.493694
