ply
format ascii 1.0
comment sampling resolution: 0.01
comment noise level: 0.01
comment Created by Open3D
element vertex 1702
property double x
property double y
property double z
end_header
0.0939318 0.499818 0.354657
0.105398 -0.47985 0.390872
0.499094 0.0873982 0.388656
-0.495877 0.0994336 0.389537
0.0850694 0.384969 0.496754
0.106775 0.401853 -0.513307
0.105825 0.490602 0.397397
0.0950821 -0.497325 0.392182
0.485889 0.0920437 0.388811
-0.502193 0.0953645 0.406155
0.0869253 0.399715 0.493819
0.0917515 0.416339 -0.500548
0.0950316 0.49696 0.414067
0.111281 -0.505673 0.421494
0.502112 0.106399 0.401351
-0.509933 0.0825369 0.402503
0.10107 0.407096 0.492435
0.0917553 0.398093 -0.489716
0.0870503 0.490131 0.432181
0.124513 -0.516743 0.400545
0.494193 0.091167 0.390767
-0.499583 0.108927 0.399926
0.103581 0.431672 0.493554
0.0857828 0.444793 -0.500662
0.0920544 0.509944 0.435937
0.0925526 -0.524976 0.428594
0.506458 0.0945615 0.42758
-0.492465 0.0766903 0.431455
0.0792273 0.419818 0.489014
0.0981528 0.431365 -0.487674
0.114193 0.496619 0.439401
0.107346 -0.510975 0.444899
0.482561 0.102917 0.435964
-0.4929 0.0922388 0.437106
0.092173 0.445787 0.498751
0.0926004 0.446539 -0.485474
0.106486 0.513514 0.455375
0.0819802 -0.500316 0.467888
0.503265 0.0972458 0.454979
-0.48643 0.0957209 0.454852
0.106016 0.467866 0.502113
0.105539 0.448851 -0.510761
0.0795261 0.49412 0.478448
0.104306 -0.507043 0.46405
0.500259 0.0881087 0.461312
-0.488671 0.108742 0.461873
0.0915437 0.472749 0.511481
0.0996874 0.468163 -0.519623
0.129247 0.512431 0.469247
0.0968146 -0.493618 0.48715
0.492729 0.0955539 0.481818
-0.504541 0.0812392 0.464579
0.087023 0.465862 0.516157
0.104741 0.457784 -0.505784
0.0864739 0.49012 0.482327
0.0798693 -0.502807 0.478216
0.499772 0.0982897 0.47882
-0.487583 0.0831251 0.477481
0.103723 0.492467 0.508297
0.0904686 0.484776 -0.49723
0.0798655 0.502366 0.491306
0.0937315 -0.514807 0.485013
0.505385 0.0992414 0.501535
-0.507217 0.0835136 0.499447
0.129626 0.507417 0.499515
0.0979361 0.487086 -0.482858
0.089491 0.49383 0.495311
0.090083 -0.49932 0.489421
0.512786 0.0853552 0.507542
-0.498081 0.0854001 0.498325
0.105437 -0.513435 0.483875
0.0882553 -0.486776 -0.500896
0.10971 0.49309 -0.488936
0.0932022 -0.506982 -0.514392
0.487727 0.116985 -0.507817
-0.505523 0.109826 -0.488937
0.116007 -0.488766 0.507817
0.0987855 -0.490348 -0.483331
0.123668 0.50367 -0.491032
0.0980364 -0.489865 -0.488436
0.495399 0.0988672 -0.506237
-0.49455 0.0978178 -0.503356
0.0986806 -0.467413 0.502507
0.10459 -0.480537 -0.497329
0.112527 0.515544 -0.466836
0.0988319 -0.502053 -0.491819
0.505323 0.101596 -0.472546
-0.501857 0.124196 -0.482374
0.0952037 -0.472674 0.487299
0.122424 -0.4791 -0.498887
0.114416 0.483187 -0.471501
0.0857616 -0.485202 -0.46553
0.501846 0.102577 -0.481081
-0.505557 0.0917696 -0.47097
0.117358 -0.456196 0.486888
0.110261 -0.44923 -0.506228
0.102655 0.513651 -0.458777
0.105313 -0.512603 -0.460592
0.513856 0.103953 -0.472011
-0.508182 0.107118 -0.464834
0.0843811 -0.440007 0.489012
0.1038 -0.465634 -0.497956
0.116773 0.503579 -0.465583
0.102356 -0.479841 -0.449442
0.502959 0.118794 -0.457555
-0.496627 0.106531 -0.444865
0.105317 -0.418462 0.495883
0.11761 -0.45197 -0.514471
0.0959947 0.49631 -0.435367
0.106952 -0.500189 -0.433754
0.510737 0.117764 -0.434933
-0.500172 0.0974907 -0.446844
0.105283 -0.433863 0.510463
0.121244 -0.445399 -0.50018
0.102811 0.501972 -0.437421
0.102171 -0.50044 -0.419295
0.479318 0.0952873 -0.435716
-0.520975 0.111511 -0.424653
0.098617 -0.432841 0.498875
0.0987122 -0.412258 -0.49497
0.119448 0.503428 -0.422661
0.101231 -0.510166 -0.416752
0.501587 0.103893 -0.414489
-0.493219 0.119369 -0.43073
0.105369 -0.423392 0.507423
0.101045 -0.422352 -0.501656
0.11237 0.491477 -0.405135
0.119182 -0.514081 -0.397196
0.509807 0.124804 -0.405592
-0.519134 0.112231 -0.409777
0.106188 -0.402764 0.500471
0.131773 -0.390891 -0.502735
0.119023 0.504406 -0.416757
0.0926697 -0.488215 -0.412072
0.492796 0.111407 -0.389885
-0.516044 0.0918279 -0.384911
0.107498 -0.396897 0.485151
0.119432 -0.398305 -0.489861
0.110891 0.489486 -0.397101
0.11878 -0.502692 -0.39738
0.490216 0.115266 -0.367835
-0.505673 0.104959 -0.402328
0.109433 -0.370988 0.507589
0.106843 -0.382626 -0.491051
0.0940674 0.491508 -0.373548
0.114229 -0.491851 -0.378424
0.508698 0.0934419 -0.368781
-0.506576 0.0848815 -0.387007
0.0934422 -0.370719 0.502135
0.0981571 -0.385804 -0.489997
0.0901522 0.498402 -0.356915
0.105522 -0.491048 -0.384654
0.48614 0.0967932 -0.365536
-0.490025 0.106547 -0.365363
0.0973826 -0.367937 0.508002
0.104812 -0.356946 -0.491031
0.115887 0.50531 -0.375565
0.119843 -0.518555 -0.356694
0.513971 0.0932 -0.340153
-0.504874 0.112636 -0.356657
0.0922591 -0.333859 0.5042
0.0877626 -0.351811 -0.501545
0.0948331 0.494744 -0.348209
0.110595 -0.494213 -0.337284
0.4941 0.114852 -0.34674
-0.479977 0.100176 -0.331054
0.0983683 -0.344535 0.475863
0.116245 -0.355161 -0.514523
0.126549 0.499746 -0.344445
0.0912468 -0.492628 -0.328592
0.496301 0.113479 -0.328201
-0.489621 0.103154 -0.348528
0.110103 -0.336146 0.499097
0.107329 -0.326885 -0.489877
0.111361 0.500557 -0.337823
0.0952863 -0.510377 -0.304666
0.489867 0.108775 -0.319202
-0.518344 0.106848 -0.312619
0.0961533 -0.328443 0.508164
0.0837347 -0.321389 -0.493352
0.111139 0.510945 -0.332287
0.112402 -0.509636 -0.312117
0.50831 0.11182 -0.327357
-0.491021 0.103923 -0.321622
0.100968 -0.31309 0.498695
0.101582 -0.310841 -0.505096
0.114178 0.504878 -0.297243
0.10977 -0.503125 -0.321712
0.490277 0.10145 -0.318713
-0.493379 0.104015 -0.314545
0.109339 -0.292686 0.498174
0.0826234 -0.292071 -0.504427
0.126294 0.482431 -0.293421
0.124537 -0.497393 -0.314707
0.500841 0.0973494 -0.297119
-0.492381 0.104737 -0.303592
0.112457 -0.279056 0.509701
0.104236 -0.271585 -0.514786
0.102903 0.515536 -0.294091
0.114834 -0.476062 -0.301056
0.506839 0.0844044 -0.276221
-0.503208 0.10597 -0.284177
0.11973 -0.288702 0.50097
0.106206 -0.262196 -0.511648
0.128096 0.493046 -0.291261
0.109472 -0.487871 -0.279269
0.503009 0.103464 -0.265062
-0.490439 0.101002 -0.265731
0.101161 -0.281407 0.510529
0.109177 -0.252479 -0.487432
0.103491 0.489059 -0.262991
0.101935 -0.478454 -0.268562
0.51594 0.0969727 -0.256532
-0.480428 0.101299 -0.28
0.0927462 -0.265143 0.503623
0.100763 -0.245169 -0.496172
0.0867924 0.493191 -0.24922
0.114069 -0.494308 -0.249522
0.498759 0.10924 -0.25926
-0.520837 0.123432 -0.258701
0.107644 -0.240064 0.491045
0.117671 -0.245624 -0.495939
0.113447 0.508247 -0.248327
0.112283 -0.486851 -0.255048
0.518125 0.111208 -0.26888
-0.509573 0.0976526 -0.240769
0.0899413 -0.226637 0.500958
0.100103 -0.223447 -0.518893
0.0948258 0.499496 -0.229735
0.109381 -0.486829 -0.230731
0.498592 0.0983677 -0.235123
-0.501578 0.0877277 -0.221542
0.103021 -0.242684 0.489017
0.0973517 -0.222868 -0.502218
0.113018 0.500295 -0.219876
0.0928112 -0.496392 -0.214983
0.493379 0.110779 -0.217794
-0.509664 0.0915695 -0.232448
0.108421 -0.19753 0.477712
0.102845 -0.218629 -0.490325
0.113682 0.487838 -0.217032
0.101356 -0.492846 -0.218853
0.521098 0.107441 -0.233747
-0.502038 0.113473 -0.229736
0.121814 -0.214544 0.510163
0.116206 -0.204504 -0.515685
0.0993933 0.491624 -0.190785
0.107147 -0.502617 -0.198215
0.48593 0.0948356 -0.199065
-0.490053 0.0894639 -0.220868
0.103692 -0.206944 0.502042
0.101162 -0.210305 -0.499345
0.0990615 0.501123 -0.208003
0.0910795 -0.491446 -0.192434
0.495218 0.108869 -0.214235
-0.504975 0.103588 -0.199083
0.104286 -0.191723 0.511719
0.105136 -0.193034 -0.487406
0.102933 0.511281 -0.18504
0.0962723 -0.502212 -0.195355
0.498619 0.103432 -0.186784
-0.50235 0.112125 -0.180262
0.123323 -0.160117 0.508267
0.0905188 -0.169346 -0.503743
0.103666 0.515554 -0.180911
0.125706 -0.501353 -0.186277
0.490371 0.113258 -0.182563
-0.520692 0.0975987 -0.16931
0.0933106 -0.165377 0.505671
0.0965714 -0.173203 -0.503496
0.117547 0.505888 -0.162625
0.12247 -0.514349 -0.174614
0.491994 0.103274 -0.165824
-0.50103 0.112678 -0.169732
0.112563 -0.154167 0.496207
0.102677 -0.165126 -0.505083
0.106519 0.50529 -0.155024
0.102168 -0.494014 -0.154296
0.51387 0.105999 -0.160006
-0.503794 0.116788 -0.169078
0.111754 -0.124351 0.51289
0.106339 -0.145272 -0.512483
0.0873201 0.507805 -0.155586
0.106692 -0.483738 -0.152404
0.479758 0.110568 -0.149877
-0.500964 0.113567 -0.136396
0.0826914 -0.134929 0.493793
0.0961281 -0.115104 -0.505835
0.101888 0.49783 -0.123579
0.111461 -0.508794 -0.144707
0.504939 0.0892933 -0.125973
-0.499996 0.12205 -0.131729
0.0981824 -0.114527 0.504225
0.0987851 -0.125279 -0.489349
0.111976 0.485418 -0.128571
0.112439 -0.491782 -0.129476
0.511308 0.0992342 -0.1468
-0.504783 0.0963579 -0.140189
0.116185 -0.118853 0.496819
0.120848 -0.112622 -0.496164
0.0942066 0.482836 -0.119824
0.113067 -0.500884 -0.0967828
0.511375 0.126166 -0.126949
-0.500973 0.104411 -0.116839
0.0925174 -0.0930274 0.515181
0.118694 -0.101837 -0.47971
0.117282 0.475876 -0.114109
0.118529 -0.522622 -0.116101
0.509464 0.117171 -0.121669
-0.487032 0.0996666 -0.100443
0.107391 -0.0961968 0.50185
0.108875 -0.10224 -0.50294
0.132048 0.511916 -0.111242
0.108084 -0.500172 -0.106736
0.523064 0.119072 -0.100736
-0.513385 0.111806 -0.104658
0.104226 -0.1024 0.48538
0.109711 -0.094745 -0.500922
0.127787 0.510716 -0.102081
0.0908248 -0.50536 -0.105768
0.509005 0.127094 -0.0963554
-0.497042 0.111095 -0.0975173
0.108649 -0.0602465 0.486669
0.105853 -0.0787142 -0.485861
0.108476 0.493285 -0.0778251
0.106614 -0.482494 -0.0556788
0.519747 0.108551 -0.0821353
-0.486456 0.101705 -0.0793164
0.101001 -0.057388 0.475687
0.110468 -0.0555073 -0.50787
0.114106 0.500229 -0.0587079
0.116619 -0.500848 -0.053362
0.507916 0.1022 -0.0756548
-0.482337 0.0916204 -0.0650489
0.11869 -0.043018 0.498497
0.116981 -0.0473578 -0.492165
0.0935657 0.490336 -0.0418038
0.10465 -0.498886 -0.0564585
0.494472 0.0938001 -0.054647
-0.49566 0.106882 -0.0705424
0.108248 -0.0304583 0.485766
0.103981 -0.051144 -0.50129
0.116674 0.48913 -0.0485991
0.107346 -0.495672 -0.0631629
0.507513 0.108551 -0.03866
-0.502441 0.10223 -0.0399322
0.118788 -0.0251847 0.515903
0.100767 -0.0172585 -0.50203
0.113471 0.497173 -0.0413924
0.102128 -0.505196 -0.0219586
0.49914 0.124267 -0.0368719
-0.501381 0.0939411 -0.0327695
0.107452 -0.0273403 0.501096
0.105836 -0.0248014 -0.502132
0.0986859 0.505014 -0.0156817
0.109206 -0.474056 -0.0356255
0.493921 0.108163 -0.0421015
-0.501166 0.103294 -0.0261999
0.122979 -0.0153729 0.484085
0.0846271 -0.00116931 -0.501269
0.0970575 0.499239 -0.0119716
0.0830688 -0.516417 -0.00966189
0.494167 0.131385 -0.0206536
-0.48892 0.115691 -0.0137025
0.133752 -0.00165708 0.506074
0.105645 -0.010364 -0.495204
0.0893788 0.49854 0.011616
0.112009 -0.515973 -0.00372547
0.505398 0.0977557 0.00462873
-0.497957 0.123924 -0.02062
0.113952 0.00838965 0.49669
0.11913 0.0117253 -0.503777
0.116003 0.507135 0.0200369
0.114298 -0.498787 0.0122573
0.496484 0.0975101 0.000258156
-0.497089 0.0982148 0.00839612
0.0991164 0.00961643 0.489759
0.122386 0.0130352 -0.500001
0.103593 0.493238 0.01794
0.0972592 -0.475339 0.000768111
0.499992 0.0944174 0.0137481
-0.475414 0.105306 0.0303487
0.095604 0.0295952 0.490113
0.1133 0.0179897 -0.503881
0.0981664 0.49622 0.0203256
0.108295 -0.504611 0.0133836
0.500915 0.0961561 0.0369867
-0.488619 0.0939308 0.0237908
0.113824 0.0383232 0.504612
0.0855115 0.037493 -0.50756
0.0964069 0.467834 0.0383166
0.105816 -0.495332 0.0265227
0.504589 0.108804 0.031829
-0.491344 0.103676 0.0373846
0.106674 0.0416173 0.502365
0.113868 0.0583133 -0.492335
0.100793 0.498608 0.0472782
0.124675 -0.496018 0.0493728
0.496891 0.104199 0.0503494
-0.498069 0.102273 0.0815012
0.09536 0.0576299 0.480364
0.108729 0.0667442 -0.500763
0.104538 0.495934 0.046086
0.111515 -0.493304 0.0671663
0.509114 0.0980688 0.0515777
-0.503443 0.113689 0.055671
0.111829 0.0621052 0.49945
0.105177 0.0724723 -0.496957
0.107204 0.508978 0.0444813
0.0990228 -0.507757 0.0777862
0.506346 0.10496 0.059186
-0.490236 0.105191 0.0762298
0.0969205 0.0682957 0.499841
0.104971 0.062811 -0.498666
0.113389 0.487008 0.0753625
0.107563 -0.479742 0.100634
0.509805 0.104959 0.0835633
-0.493421 0.113892 0.0964743
0.114528 0.0894954 0.511328
0.121139 0.0737247 -0.5033
0.115278 0.497354 0.0797098
0.104066 -0.487321 0.0754732
0.487561 0.0906547 0.0989298
-0.499527 0.089551 0.10012
0.117248 0.101729 0.515555
0.104928 0.0974472 -0.508292
0.0942938 0.503597 0.0892778
0.104359 -0.486411 0.0896134
0.478974 0.102235 0.104399
-0.501658 0.0812225 0.0855272
0.0883981 0.11388 0.507272
0.111785 0.108864 -0.489584
0.111392 0.511403 0.102343
0.0955535 -0.517359 0.116066
0.493677 0.119196 0.105252
-0.497709 0.112792 0.106802
0.111955 0.131473 0.501166
0.085977 0.11287 -0.496541
0.0991979 0.472792 0.101811
0.102225 -0.486836 0.105711
0.497075 0.0987736 0.113672
-0.51352 0.0972112 0.123532
0.0919107 0.128846 0.500281
0.101798 0.136988 -0.503587
0.107062 0.500636 0.13652
0.0897444 -0.50001 0.12862
0.504526 0.125614 0.127918
-0.508674 0.098907 0.126352
0.109959 0.158176 0.507967
0.102347 0.116986 -0.499653
0.102303 0.492202 0.132346
0.117657 -0.490441 0.135372
0.499855 0.105123 0.142148
-0.50117 0.095759 0.147177
0.087156 0.157735 0.485423
0.104057 0.140236 -0.498657
0.0972312 0.486108 0.134971
0.111025 -0.485765 0.143831
0.50011 0.115985 0.155838
-0.491672 0.096171 0.167913
0.112189 0.152515 0.49644
0.101552 0.126368 -0.518644
0.0933715 0.505693 0.156489
0.111213 -0.50086 0.1812
0.509347 0.120777 0.14364
-0.50144 0.0994773 0.162203
0.103797 0.173562 0.495421
0.0978082 0.166167 -0.510046
0.118019 0.502149 0.158312
0.0899946 -0.51505 0.165349
0.497919 0.103824 0.172197
-0.500765 0.0976143 0.180049
0.127914 0.174091 0.49539
0.0971774 0.178973 -0.492408
0.0884828 0.495673 0.175238
0.117103 -0.505601 0.170964
0.506928 0.0915665 0.178028
-0.520353 0.112123 0.178261
0.10373 0.177088 0.501443
0.0985622 0.190085 -0.495458
0.0977407 0.493697 0.193618
0.113413 -0.500023 0.182007
0.505253 0.0799397 0.175028
-0.499236 0.109541 0.182863
0.100804 0.213618 0.490093
0.114892 0.204991 -0.495683
0.0893288 0.499014 0.189577
0.0971754 -0.511028 0.193379
0.488736 0.114582 0.192701
-0.499599 0.106767 0.190923
0.0884712 0.198573 0.492193
0.101679 0.209774 -0.518058
0.107618 0.510235 0.211828
0.105167 -0.506077 0.191014
0.505091 0.0996875 0.202604
-0.513068 0.112889 0.208706
0.105375 0.203811 0.512531
0.108217 0.212188 -0.502443
0.111222 0.497149 0.226432
0.0906306 -0.512366 0.199874
0.503665 0.111943 0.216304
-0.503681 0.125812 0.229679
0.103817 0.232708 0.504091
0.101449 0.221854 -0.5275
0.094767 0.492085 0.227266
0.104083 -0.497681 0.232993
0.520415 0.118409 0.234314
-0.504157 0.117511 0.245096
0.100587 0.243891 0.506236
0.102826 0.225813 -0.506221
0.107362 0.491464 0.231262
0.124538 -0.493895 0.241496
0.494262 0.0971322 0.231245
-0.500603 0.109686 0.249654
0.112048 0.244436 0.503348
0.0858354 0.258527 -0.502699
0.0965757 0.507815 0.23275
0.112676 -0.479208 0.250552
0.496229 0.111042 0.251414
-0.493216 0.106355 0.228848
0.10756 0.267471 0.504597
0.107741 0.250811 -0.495029
0.0938975 0.503823 0.276271
0.111003 -0.504936 0.245737
0.517895 0.0906386 0.259088
-0.505418 0.103841 0.253585
0.10635 0.280415 0.500148
0.111506 0.262499 -0.507719
0.111642 0.525624 0.271398
0.104509 -0.507304 0.25416
0.502275 0.113241 0.264445
-0.50594 0.103699 0.291692
0.103099 0.263263 0.497247
0.122786 0.262505 -0.501225
0.0944516 0.48623 0.278281
0.104407 -0.513354 0.262482
0.503457 0.0953468 0.282048
-0.501705 0.112461 0.288139
0.103039 0.291768 0.489052
0.0984539 0.301194 -0.483533
0.12705 0.493666 0.283647
0.105611 -0.501228 0.292362
0.498501 0.117319 0.291092
-0.515255 0.0889725 0.29011
0.0953523 0.311177 0.488184
0.119493 0.297254 -0.502379
0.114107 0.488091 0.282979
0.0972674 -0.497758 0.298121
0.502595 0.110658 0.30551
-0.492939 0.10455 0.285689
0.104119 0.303857 0.517222
0.0878907 0.285319 -0.487781
0.100424 0.499981 0.317926
0.120886 -0.506592 0.305864
0.515454 0.0968195 0.319757
-0.497424 0.098429 0.318868
0.11811 0.316631 0.532541
0.112507 0.335491 -0.486935
0.110298 0.489891 0.303341
0.0985906 -0.508533 0.31704
0.510611 0.110309 0.307894
-0.496739 0.115531 0.305692
0.0848607 0.323974 0.499505
0.118775 0.322221 -0.507833
0.0907404 0.501427 0.343299
0.111742 -0.512688 0.336151
0.50219 0.118189 0.310666
-0.506708 0.100714 0.322985
0.119497 0.333889 0.500786
0.0928434 0.347798 -0.503429
0.106113 0.481737 0.325571
0.0990428 -0.489419 0.337447
0.500035 0.0973805 0.331238
-0.495732 0.10967 0.332481
0.123175 0.351381 0.495178
0.107774 0.354994 -0.515799
0.101063 0.491305 0.338291
0.112392 -0.510989 0.362815
0.49479 0.105126 0.351697
-0.48623 0.120042 0.354448
0.110063 0.361679 0.523809
0.112974 0.376681 -0.49002
0.0817456 0.488813 0.35798
0.102023 -0.51345 0.367404
0.494846 0.114698 0.351967
-0.504226 0.117861 0.358645
0.108319 0.367324 0.501754
0.127495 0.362291 -0.502999
0.101724 0.525795 0.363434
0.127852 -0.501963 0.364238
0.488957 0.0996684 0.354468
-0.487701 0.131056 0.373898
0.114586 0.389304 0.499265
0.106737 0.401259 -0.502513
0.0940251 0.492738 0.378549
0.0946454 -0.494101 0.386257
0.489312 0.109249 0.387419
-0.513468 0.101503 0.363288
0.11318 0.395187 0.503748
0.111097 0.370204 -0.501715
0.111468 0.490969 0.407463
0.106176 -0.507731 0.394629
0.494646 0.114742 0.395793
-0.499633 0.105322 0.388535
0.11134 0.407148 0.507712
0.105973 0.395598 -0.488177
0.1014 0.491038 0.392377
0.0938917 -0.489675 0.388688
0.530942 0.0982855 0.396156
-0.503037 0.110039 0.399968
0.112734 0.414438 0.526164
0.0938039 0.426151 -0.48856
0.111746 0.501029 0.401637
0.111828 -0.502992 0.404246
0.500015 0.10832 0.408621
-0.477184 0.0989838 0.406556
0.123014 0.438143 0.512394
0.0999547 0.425881 -0.500549
0.120057 0.4947 0.428884
0.132521 -0.497364 0.447467
0.502316 0.101389 0.436607
-0.517407 0.115613 0.432973
0.0976344 0.412087 0.502387
0.121003 0.423628 -0.49625
0.08485 0.500686 0.425212
0.0977091 -0.477569 0.431265
0.507629 0.13014 0.461222
-0.496778 0.0989255 0.427008
0.0965347 0.433958 0.48585
0.109757 0.456069 -0.489044
0.113522 0.498813 0.445148
0.0987357 -0.526785 0.424984
0.503497 0.10797 0.436636
-0.495661 0.119155 0.44573
0.120482 0.459236 0.490514
0.0936611 0.459208 -0.507393
0.11602 0.497569 0.463357
0.10252 -0.525658 0.438979
0.516563 0.111211 0.462675
-0.491653 0.11264 0.450763
0.105473 0.467125 0.488719
0.1069 0.455852 -0.507725
0.107884 0.50801 0.470366
0.0906712 -0.508045 0.462349
0.51669 0.107103 0.452962
-0.502778 0.0946686 0.465814
0.110881 0.475535 0.501766
0.113397 0.462669 -0.495884
0.0958649 0.492879 0.466187
0.114914 -0.499376 0.467364
0.49875 0.0924771 0.450586
-0.512672 0.0928929 0.45855
0.103772 0.485102 0.496085
0.103183 0.47232 -0.498554
0.100283 0.502373 0.490075
0.105139 -0.48349 0.47165
0.4733 0.111105 0.47784
-0.500696 0.109937 0.48649
0.112117 0.487946 0.510724
0.107425 0.502627 -0.480653
0.0994118 0.497329 0.491039
0.116124 -0.496867 0.482097
0.510147 0.0974591 0.481715
-0.482692 0.113136 0.504104
0.105624 0.498879 0.503209
0.119837 0.510523 -0.510077
0.108088 0.501087 0.50187
0.115605 -0.490687 0.50363
0.500968 0.0908246 0.496368
-0.507491 0.0984295 0.500325
0.121633 -0.501392 0.501915
0.107818 -0.512278 -0.50692
0.104956 0.497558 -0.526973
0.12208 -0.510923 -0.503443
0.511615 0.145037 -0.507994
-0.483044 0.099614 -0.493366
0.124856 -0.50267 0.489237
0.112598 -0.491838 -0.507332
0.127965 0.505543 -0.489583
0.108975 -0.504167 -0.487854
0.50254 0.108851 -0.488365
-0.504329 0.120036 -0.506591
0.123103 -0.482656 0.506142
0.120516 -0.476308 -0.502185
0.12046 0.492372 -0.495305
0.131901 -0.502948 -0.472685
0.503339 0.129432 -0.468386
-0.498475 0.133735 -0.470689
0.104489 -0.456083 0.500163
0.102937 -0.449517 -0.497823
0.118349 0.482498 -0.475217
0.125938 -0.502754 -0.454318
0.499574 0.116964 -0.478249
-0.500393 0.122984 -0.46838
0.125367 -0.457705 0.505269
0.116218 -0.463673 -0.497963
0.114874 0.482648 -0.445025
0.123758 -0.503212 -0.462821
0.505196 0.121948 -0.46161
-0.506026 0.119579 -0.460065
0.110034 -0.453876 0.485502
0.115109 -0.446583 -0.495502
0.123943 0.483087 -0.454458
0.117183 -0.491707 -0.445645
0.489756 0.11212 -0.46343
-0.490024 0.10567 -0.430061
0.109433 -0.435942 0.503056
0.125465 -0.45099 -0.503478
0.130823 0.491235 -0.43326
0.118982 -0.501795 -0.447286
0.49148 0.0992655 -0.438403
-0.515944 0.11907 -0.455496
0.127423 -0.434165 0.510396
0.120111 -0.437537 -0.504306
0.108796 0.511997 -0.446702
0.134766 -0.486716 -0.442932
0.511286 0.10426 -0.430084
-0.498109 0.13293 -0.427516
0.10861 -0.429443 0.499055
0.108648 -0.430514 -0.495377
0.0982899 0.499948 -0.408125
0.124785 -0.506457 -0.423283
0.511072 0.113025 -0.414997
-0.507788 0.114816 -0.423227
0.104155 -0.432886 0.51779
0.13296 -0.424773 -0.502909
0.117076 0.504179 -0.410657
0.10073 -0.508611 -0.395863
0.505039 0.129153 -0.401668
-0.495699 0.106551 -0.417167
0.109063 -0.403072 0.488757
0.130798 -0.383436 -0.48738
0.120496 0.49452 -0.39864
0.12477 -0.498554 -0.402174
0.493608 0.11524 -0.387071
-0.506209 0.106857 -0.418732
0.107596 -0.397589 0.503626
0.113303 -0.39959 -0.510661
0.100254 0.496092 -0.393631
0.109737 -0.503497 -0.396633
0.490778 0.11712 -0.384681
-0.49229 0.114543 -0.399899
0.135117 -0.382246 0.500788
0.118238 -0.377308 -0.48651
0.110592 0.494802 -0.373496
0.113756 -0.497769 -0.378791
0.496091 0.11594 -0.390972
-0.487862 0.124763 -0.36765
0.138078 -0.36123 0.522215
0.128681 -0.359328 -0.474066
0.101678 0.498813 -0.376547
0.11085 -0.509728 -0.365947
0.491762 0.114643 -0.388177
-0.490852 0.100674 -0.364171
0.116093 -0.339521 0.499111
0.122513 -0.353046 -0.496102
0.109876 0.493658 -0.36452
0.108259 -0.499969 -0.37345
0.496374 0.121374 -0.352892
-0.509986 0.115685 -0.358116
0.127706 -0.34977 0.491922
0.110762 -0.361051 -0.507147
0.10644 0.492848 -0.354594
0.114431 -0.477743 -0.341301
0.513843 0.120086 -0.351912
-0.495306 0.133623 -0.338411
0.128614 -0.334587 0.51228
0.113815 -0.358514 -0.521438
0.118891 0.499532 -0.355512
0.111516 -0.49831 -0.355098
0.504069 0.123668 -0.347135
-0.5151 0.132776 -0.339978
0.118357 -0.308202 0.495959
0.116656 -0.343929 -0.500391
0.120463 0.491367 -0.317129
0.0964156 -0.521259 -0.331405
0.489674 0.107745 -0.350775
-0.499758 0.129824 -0.328898
0.112706 -0.319527 0.503554
0.125032 -0.304991 -0.514185
0.123657 0.493933 -0.300911
0.125986 -0.523853 -0.31921
0.502526 0.117712 -0.320989
-0.486273 0.12677 -0.317327
0.12835 -0.300511 0.49856
0.109553 -0.29302 -0.507012
0.112201 0.492363 -0.323756
0.121075 -0.499582 -0.315558
0.504576 0.121654 -0.296232
-0.492549 0.114431 -0.313114
0.109027 -0.307625 0.48068
0.119222 -0.307622 -0.510154
0.126937 0.484537 -0.293451
0.113508 -0.487717 -0.284707
0.496653 0.116996 -0.310156
-0.489213 0.0886773 -0.29076
0.134783 -0.283278 0.506559
0.111709 -0.29895 -0.521093
0.120355 0.518124 -0.295121
0.0920578 -0.510171 -0.280926
0.490766 0.121393 -0.283467
-0.490929 0.0938354 -0.286011
0.115086 -0.286996 0.504829
0.109699 -0.289946 -0.498797
0.102202 0.489127 -0.272287
0.112348 -0.481771 -0.29138
0.480121 0.120451 -0.272115
-0.494354 0.11215 -0.288461
0.122783 -0.285159 0.512986
0.115831 -0.261188 -0.485889
0.119936 0.47979 -0.275082
0.111733 -0.501607 -0.267182
0.504587 0.120585 -0.27042
-0.505582 0.11618 -0.277543
0.126918 -0.264518 0.495042
0.113447 -0.242505 -0.500152
0.124839 0.514753 -0.246153
0.116223 -0.501078 -0.259787
0.512442 0.105374 -0.264624
-0.509946 0.123776 -0.254232
0.127121 -0.275341 0.496642
0.121267 -0.248006 -0.512978
0.10731 0.495603 -0.245125
0.134583 -0.501955 -0.252121
0.507344 0.115854 -0.246577
-0.509884 0.097765 -0.240988
0.112111 -0.238614 0.518313
0.126943 -0.23131 -0.497041
0.121107 0.514466 -0.256935
0.116351 -0.493307 -0.237509
0.490061 0.116563 -0.224325
-0.494974 0.115748 -0.236109
0.112997 -0.221894 0.487345
0.115908 -0.222469 -0.482584
0.113019 0.499906 -0.21874
0.127414 -0.494834 -0.241489
0.493933 0.120297 -0.233097
-0.508293 0.124288 -0.22343
0.116312 -0.205921 0.48668
0.120607 -0.21108 -0.520811
0.107413 0.495613 -0.227807
0.121755 -0.517066 -0.218227
0.500232 0.0984171 -0.203484
-0.516738 0.123561 -0.237489
0.11385 -0.205118 0.495634
0.101409 -0.211089 -0.506862
0.114693 0.510124 -0.210151
0.114511 -0.509616 -0.206862
0.500347 0.11929 -0.219041
-0.501707 0.140662 -0.191687
0.128061 -0.205499 0.49795
0.0978926 -0.200106 -0.495696
0.098553 0.495898 -0.210015
0.113884 -0.486724 -0.199467
0.497857 0.114696 -0.207001
-0.47736 0.125393 -0.169468
0.124705 -0.201723 0.472001
0.104854 -0.175496 -0.496936
0.114824 0.481078 -0.176608
0.124895 -0.488072 -0.191288
0.490764 0.103622 -0.184345
-0.502614 0.112211 -0.198297
0.115612 -0.194007 0.500781
0.117667 -0.180166 -0.499267
0.10405 0.497808 -0.165108
0.117857 -0.498879 -0.165694
0.519247 0.102655 -0.179132
-0.504482 0.108278 -0.164503
0.105646 -0.161095 0.506149
0.123428 -0.153727 -0.508778
0.11408 0.496063 -0.171684
0.129935 -0.504523 -0.174583
0.498661 0.126576 -0.175016
-0.49773 0.119499 -0.164048
0.117364 -0.146898 0.506811
0.121553 -0.161654 -0.506427
0.113643 0.489315 -0.159687
0.122426 -0.514641 -0.156363
0.513459 0.133041 -0.159409
-0.512893 0.116577 -0.155967
0.11104 -0.146561 0.518897
0.116908 -0.152406 -0.49193
0.122625 0.507453 -0.157761
0.102151 -0.507665 -0.145634
0.490692 0.109657 -0.151239
-0.515104 0.114619 -0.127663
0.109208 -0.13497 0.497091
0.111741 -0.144528 -0.49488
0.100052 0.492182 -0.146189
0.0993075 -0.503151 -0.140954
0.488703 0.121695 -0.122997
-0.486324 0.124783 -0.146477
0.12353 -0.119339 0.508145
0.113864 -0.109448 -0.504196
0.128497 0.491737 -0.12464
0.123076 -0.499083 -0.125627
0.483407 0.115488 -0.11575
-0.506241 0.111041 -0.127063
0.127484 -0.116142 0.49637
0.111913 -0.129769 -0.496727
0.1425 0.510677 -0.116392
0.129435 -0.499729 -0.125552
0.500498 0.116493 -0.0944076
-0.500581 0.104109 -0.101719
0.110711 -0.0987225 0.498927
0.0983173 -0.104086 -0.505121
0.117472 0.511669 -0.0998833
0.119555 -0.497499 -0.101586
0.504179 0.125752 -0.097347
-0.513062 0.10753 -0.103449
0.106241 -0.0891995 0.491713
0.126278 -0.12108 -0.485768
0.108898 0.496679 -0.0855023
0.114381 -0.499607 -0.0899471
0.490934 0.126509 -0.0959329
-0.512988 0.114521 -0.109057
0.131146 -0.0948317 0.496364
0.113746 -0.0698516 -0.477935
0.0807743 0.484741 -0.0894066
0.119148 -0.499489 -0.0967544
0.491707 0.105738 -0.0658935
-0.478265 0.110861 -0.0937491
0.115369 -0.0573443 0.504574
0.113279 -0.092096 -0.491831
0.115869 0.496354 -0.0744921
0.113131 -0.485783 -0.0684825
0.502246 0.128128 -0.0576941
-0.49295 0.120111 -0.0805729
0.122263 -0.0686844 0.499102
0.129262 -0.056512 -0.502178
0.117848 0.505291 -0.0581071
0.1156 -0.49126 -0.0532381
0.498594 0.136053 -0.0629493
-0.485566 0.109399 -0.0591217
0.124123 -0.055159 0.508979
0.104464 -0.0550266 -0.489144
0.0995116 0.489001 -0.0427009
0.0976089 -0.500097 -0.0559059
0.500884 0.101919 -0.0464634
-0.503613 0.124198 -0.0594419
0.104577 -0.0445127 0.501016
0.134078 -0.0538364 -0.491742
0.122919 0.490481 -0.0443501
0.12649 -0.504464 -0.0405086
0.495159 0.120839 -0.035976
-0.505764 0.13683 -0.0422631
0.112576 -0.0319538 0.488376
0.0926702 -0.0461409 -0.492477
0.10566 0.492586 -0.0327096
0.11875 -0.520251 -0.0354259
0.496915 0.128458 -0.0319552
-0.514519 0.11026 -0.0346742
0.11514 -0.0262797 0.506443
0.125835 -0.01561 -0.498765
0.116823 0.499823 -0.0200538
0.134492 -0.495074 -0.0335573
0.501997 0.113399 -0.0280329
-0.487214 0.137945 -0.0169587
0.112682 -0.0290426 0.491654
0.117773 -0.0224633 -0.516791
0.123191 0.505611 -0.01974
0.123206 -0.477722 -0.0197942
0.502575 0.10218 -0.0158728
-0.490133 0.111333 -0.00580956
0.102537 0.00906344 0.491744
0.101172 0.0137369 -0.478998
0.118414 0.493592 -0.0090308
0.104216 -0.488683 -0.0103368
0.513574 0.108177 -0.0281511
-0.499656 0.12122 -0.00517789
0.105758 -0.000191221 0.512718
0.116727 0.00227313 -0.50431
0.110766 0.515127 0.022747
0.126472 -0.499987 0.00040198
0.502126 0.105247 -0.00963629
-0.49525 0.120008 -0.011304
0.107923 0.0222695 0.496448
0.114828 0.0199663 -0.49414
0.124932 0.513387 0.0229049
0.108837 -0.502911 0.0116124
0.498339 0.111763 0.0188512
-0.511032 0.126262 0.00587531
0.10976 -0.00544679 0.495286
0.116315 0.0310666 -0.496072
0.130866 0.491553 0.0404081
0.107919 -0.499312 0.00838137
0.526495 0.125067 0.0256649
-0.510933 0.11354 0.00669865
0.111548 0.0449347 0.496938
0.146071 0.0430165 -0.511097
0.109006 0.49847 0.0234204
0.10643 -0.50456 0.0431825
0.503595 0.126961 0.0350766
-0.490076 0.117763 0.0329605
0.108749 0.0404193 0.497764
0.11688 0.0337393 -0.514642
0.13191 0.503249 0.0404983
0.116732 -0.50019 0.0638403
0.51224 0.102078 0.0331336
-0.497549 0.111746 0.0488279
0.122443 0.0572198 0.500108
0.10882 0.049247 -0.511766
0.135226 0.510881 0.0483304
0.106863 -0.490396 0.0480874
0.508822 0.101882 0.04679
-0.494306 0.125995 0.0557294
0.105981 0.0625073 0.502581
0.118056 0.052298 -0.497865
0.11609 0.488723 0.0876146
0.117564 -0.502822 0.0676068
0.495294 0.111641 0.0580964
-0.518825 0.124909 0.0634758
0.130709 0.0776157 0.503967
0.128683 0.0753838 -0.503103
0.110725 0.496842 0.0728016
0.124021 -0.497769 0.0782831
0.494193 0.122089 0.0896221
-0.498957 0.116353 0.0582671
0.128395 0.100769 0.489923
0.12204 0.0898471 -0.499851
0.135095 0.493019 0.0838811
0.113288 -0.509175 0.091134
0.495695 0.111074 0.0773314
-0.514888 0.108089 0.0820542
0.12983 0.0876821 0.505492
0.107384 0.0990203 -0.506178
0.123407 0.493866 0.090756
0.103198 -0.494736 0.0957938
0.505569 0.108205 0.0969052
-0.500365 0.104628 0.0865746
0.113672 0.122245 0.484662
0.114625 0.0988429 -0.483347
0.124418 0.498028 0.104581
0.111059 -0.490646 0.102698
0.50603 0.141065 0.12506
-0.502148 0.113734 0.0985351
0.119737 0.115628 0.512431
0.11641 0.109473 -0.506209
0.126729 0.496883 0.11594
0.123045 -0.493177 0.127593
0.484922 0.120302 0.119767
-0.503066 0.12189 0.124129
0.108258 0.1396 0.508839
0.128519 0.116286 -0.509628
0.12233 0.491655 0.139328
0.113195 -0.501281 0.127523
0.491627 0.124202 0.119498
-0.497943 0.107528 0.117883
0.105214 0.131441 0.472171
0.127375 0.150836 -0.488837
0.124219 0.501425 0.139259
0.115645 -0.504913 0.133868
0.504491 0.110662 0.144514
-0.488455 0.111831 0.128543
0.115251 0.163532 0.490805
0.107496 0.154511 -0.498611
0.117307 0.481105 0.153791
0.123477 -0.510685 0.157466
0.489867 0.112619 0.140441
-0.502874 0.09223 0.158321
0.108258 0.160919 0.499882
0.102209 0.165256 -0.501562
0.112016 0.495671 0.136173
0.102601 -0.488611 0.153162
0.496695 0.103322 0.143556
-0.493984 0.106432 0.152704
0.127093 0.161221 0.495796
0.139691 0.15024 -0.498687
0.117115 0.512517 0.1696
0.117844 -0.513429 0.171239
0.5158 0.114026 0.175074
-0.469473 0.112311 0.163341
0.114643 0.176059 0.513987
0.117863 0.160187 -0.486395
0.106543 0.493835 0.180259
0.119778 -0.502066 0.161005
0.511913 0.114084 0.175787
-0.495854 0.117985 0.160972
0.134067 0.182407 0.502509
0.114652 0.177396 -0.512148
0.105092 0.497518 0.177121
0.115517 -0.495749 0.185292
0.51135 0.134887 0.176186
-0.510058 0.100742 0.199729
0.109806 0.220138 0.499669
0.100805 0.188238 -0.5227
0.107164 0.509925 0.199266
0.111238 -0.508433 0.203059
0.502526 0.109092 0.198275
-0.513071 0.105617 0.191637
0.118767 0.214405 0.510539
0.0926287 0.195538 -0.500406
0.12375 0.491953 0.199619
0.121109 -0.496145 0.221872
0.497761 0.109617 0.203097
-0.483232 0.11774 0.225427
0.116426 0.232515 0.50119
0.114149 0.214816 -0.492366
0.0933566 0.495104 0.21102
0.108569 -0.489399 0.209808
0.480334 0.123612 0.217975
-0.511694 0.114685 0.226486
0.110846 0.234242 0.504808
0.100471 0.236357 -0.487174
0.118343 0.502958 0.225976
0.11675 -0.500326 0.217726
0.499107 0.0997531 0.216691
-0.497007 0.127529 0.236939
0.118465 0.24083 0.480812
0.125528 0.249999 -0.503377
0.133548 0.501554 0.255074
0.113941 -0.48396 0.264301
0.506514 0.117961 0.239731
-0.509864 0.112129 0.247422
0.117735 0.239457 0.509183
0.0999947 0.259905 -0.502856
0.11245 0.494857 0.246325
0.120902 -0.494807 0.261481
0.500863 0.120073 0.242283
-0.514904 0.122399 0.269954
0.12429 0.240967 0.501959
0.12216 0.249789 -0.489393
0.10944 0.501943 0.254588
0.110885 -0.499728 0.263777
0.50404 0.118626 0.248623
-0.508612 0.138121 0.255728
0.0960917 0.276741 0.510341
0.119647 0.277437 -0.500889
0.106488 0.512866 0.260401
0.114703 -0.492576 0.273639
0.501852 0.126553 0.286755
-0.483875 0.12126 0.271234
0.120194 0.281945 0.499758
0.110651 0.282927 -0.496389
0.122327 0.487254 0.297956
0.117831 -0.508063 0.275228
0.480491 0.113865 0.280796
-0.518086 0.115342 0.293491
0.0998168 0.314077 0.511933
0.107159 0.282407 -0.486833
0.097322 0.485008 0.295862
0.104099 -0.501889 0.278365
0.482266 0.10967 0.298325
-0.490602 0.109248 0.305261
0.106275 0.305544 0.50737
0.111053 0.302089 -0.516345
0.110889 0.516845 0.291132
0.121108 -0.509355 0.288188
0.506139 0.121751 0.280515
-0.506642 0.124833 0.294868
0.109408 0.309171 0.510603
0.123913 0.305675 -0.498202
0.117193 0.503074 0.295692
0.11638 -0.501726 0.291484
0.504295 0.116873 0.286422
-0.513819 0.11693 0.309342
0.110483 0.32406 0.493457
0.12204 0.331438 -0.492754
0.098554 0.47364 0.329292
0.134523 -0.493951 0.322317
0.488704 0.104688 0.328075
-0.506235 0.130537 0.324439
0.0950745 0.329888 0.500356
0.100055 0.339034 -0.509684
0.0966653 0.50323 0.348332
0.0987814 -0.49605 0.353527
0.504611 0.119693 0.354946
-0.504257 0.117725 0.331488
0.107502 0.347538 0.503438
0.107828 0.349991 -0.502126
0.121623 0.482602 0.346297
0.123316 -0.506031 0.331857
0.510552 0.115809 0.358354
-0.509925 0.114055 0.334758
0.125584 0.35185 0.502352
0.11917 0.333887 -0.509848
0.135223 0.501095 0.352091
0.10533 -0.501946 0.362919
0.482071 0.123564 0.350697
-0.48511 0.125464 0.348089
0.121211 0.344637 0.507527
0.11122 0.357612 -0.490648
0.125239 0.51632 0.381058
0.108135 -0.510048 0.356011
0.502353 0.116834 0.388897
-0.491358 0.124528 0.352121
0.125288 0.364863 0.51043
0.103181 0.367881 -0.497195
0.13351 0.497373 0.363892
0.103311 -0.525431 0.371567
0.51004 0.125128 0.354161
-0.516734 0.108714 0.361845
0.124338 0.378563 0.50382
0.113379 0.363546 -0.4725
0.122282 0.510249 0.39365
0.112676 -0.472783 0.390542
0.513597 0.109505 0.37695
-0.5053 0.126983 0.375034
0.100951 0.39289 0.504898
0.110001 0.403383 -0.505497
0.103386 0.495161 0.395483
0.104426 -0.493022 0.393288
0.499279 0.126364 0.378896
-0.49714 0.106991 0.386759
0.10646 0.391639 0.506252
0.112588 0.403812 -0.509419
0.113865 0.504777 0.407592
0.128897 -0.50946 0.402821
0.50536 0.144225 0.409641
-0.505276 0.115017 0.416017
0.111189 0.413322 0.490693
0.108889 0.409084 -0.50932
0.103187 0.51633 0.411856
0.100226 -0.486738 0.416847
0.497348 0.10581 0.409511
-0.484032 0.125524 0.413005
0.122025 0.399885 0.513063
0.128108 0.41932 -0.518017
0.125577 0.496377 0.425577
0.111144 -0.50753 0.419682
0.508652 0.114215 0.439999
-0.508486 0.103773 0.427695
0.120743 0.426065 0.517484
0.111249 0.430561 -0.50076
0.124433 0.479571 0.430183
0.127332 -0.500718 0.429663
0.516148 0.114147 0.442197
-0.50392 0.125479 0.432981
0.100227 0.442343 0.508802
0.110544 0.422976 -0.50598
0.128102 0.498911 0.442082
0.1315 -0.493948 0.443098
0.504524 0.102892 0.460287
-0.514195 0.12695 0.442625
0.0883697 0.450311 0.500936
0.127068 0.44474 -0.497803
0.11775 0.510178 0.455849
0.125994 -0.510257 0.445883
0.506701 0.109674 0.451162
-0.505327 0.113981 0.43871
0.12247 0.461064 0.508383
0.111936 0.449382 -0.501923
0.0983508 0.485391 0.464747
0.12026 -0.488712 0.451894
0.512751 0.107509 0.445139
-0.480706 0.113732 0.482351
0.105892 0.458079 0.489103
0.135325 0.487771 -0.486678
0.112053 0.488974 0.459306
0.114158 -0.499764 0.480341
0.500424 0.121433 0.461632
-0.503071 0.113663 0.49011
0.103682 0.501766 0.492996
0.12355 0.473443 -0.490719
0.107555 0.494768 0.495643
0.117487 -0.501507 0.475972
0.499198 0.11235 0.479203
-0.508966 0.109487 0.490196
0.106702 0.496832 0.503452
0.139874 0.486639 -0.492603
0.106454 0.508451 0.513683
0.120636 -0.492961 0.483012
0.498462 0.103364 0.485235
-0.49575 0.103256 0.498214
0.1328 0.483169 0.501003
0.10216 0.492202 -0.494863
0.132919 0.507168 0.517873
0.120441 -0.511295 0.488032
0.484483 0.122892 0.500925
-0.505444 0.129829 0.50095
0.131878 -0.488437 0.507449
0.120142 -0.505211 -0.51351
0.125672 0.501089 -0.49486
0.131558 -0.492605 -0.497512
0.499474 0.139928 -0.498972
-0.497709 0.13993 -0.491477
0.145927 -0.489505 0.497873
0.119617 -0.473422 -0.498374
0.119488 0.481944 -0.476369
0.115391 -0.497857 -0.501516
0.49897 0.122654 -0.486046
-0.508102 0.126324 -0.486388
0.133436 -0.47697 0.491135
0.125451 -0.49982 -0.475483
0.10459 0.507349 -0.475596
0.12069 -0.509303 -0.464884
0.490269 0.110974 -0.475416
-0.512634 0.138638 -0.481484
0.121011 -0.469527 0.509894
0.138132 -0.471106 -0.499415
0.125843 0.521537 -0.462082
0.137081 -0.492713 -0.470912
0.511614 0.132915 -0.47412
-0.482969 0.130231 -0.471964
0.125195 -0.474577 0.506116
0.122711 -0.462165 -0.491094
0.11745 0.507935 -0.461013
0.126858 -0.488505 -0.470668
0.506008 0.125998 -0.481883
-0.496724 0.122679 -0.452862
0.12583 -0.454886 0.519844
0.134725 -0.454439 -0.495926
0.128948 0.510534 -0.451655
0.11333 -0.481182 -0.443914
0.499614 0.13444 -0.440918
-0.509823 0.124374 -0.456508
0.119732 -0.438797 0.491224
0.122776 -0.436822 -0.502576
0.106559 0.507063 -0.443673
0.133076 -0.477678 -0.435358
0.518396 0.120289 -0.453093
-0.512705 0.124826 -0.414786
0.134881 -0.418816 0.493435
0.124233 -0.428399 -0.502045
0.118481 0.504378 -0.444687
0.140459 -0.505207 -0.416721
0.503233 0.118726 -0.426985
-0.502155 0.124961 -0.414742
0.140999 -0.412961 0.502279
0.120941 -0.419956 -0.488335
0.138761 0.507573 -0.400182
0.147754 -0.499118 -0.421311
0.509811 0.123419 -0.424525
-0.494554 0.117139 -0.423319
0.126621 -0.406107 0.512831
0.13476 -0.415752 -0.489748
0.123184 0.500682 -0.419386
0.127231 -0.522925 -0.409846
0.497422 0.139734 -0.414039
-0.488958 0.116448 -0.399503
0.120702 -0.38293 0.490152
0.123633 -0.396032 -0.499427
0.116932 0.488983 -0.40626
0.129788 -0.484002 -0.412524
0.519271 0.116422 -0.409805
-0.506916 0.127219 -0.396694
0.133254 -0.390511 0.494179
0.136077 -0.387618 -0.501646
0.12995 0.491969 -0.375005
0.126794 -0.512194 -0.374218
0.505788 0.121822 -0.407932
-0.497758 0.123794 -0.385129
0.144547 -0.378851 0.493459
0.129487 -0.384983 -0.506544
0.131241 0.514495 -0.395642
0.108512 -0.50703 -0.384053
0.494477 0.131761 -0.36493
-0.498837 0.131202 -0.376441
0.130975 -0.365825 0.508538
0.127597 -0.368518 -0.517933
0.124029 0.503265 -0.366068
0.12825 -0.494705 -0.383955
0.490638 0.131166 -0.374493
-0.508654 0.126737 -0.368657
0.116763 -0.360642 0.520415
0.123132 -0.364545 -0.495587
0.124588 0.530688 -0.352769
0.123791 -0.502756 -0.361803
0.488512 0.130934 -0.365521
-0.512909 0.125996 -0.340047
0.122632 -0.345383 0.504728
0.116482 -0.36206 -0.527084
0.135305 0.494732 -0.339209
0.128615 -0.50991 -0.341737
0.495555 0.118356 -0.355872
-0.501091 0.140607 -0.353445
0.125284 -0.322481 0.504589
0.134835 -0.35243 -0.50371
0.13512 0.490514 -0.358283
0.12648 -0.507014 -0.335257
0.492449 0.115337 -0.330422
-0.494119 0.113839 -0.326249
0.132965 -0.331893 0.489814
0.106408 -0.337252 -0.513127
0.119318 0.50862 -0.338844
0.118884 -0.497079 -0.307437
0.497019 0.118411 -0.335331
-0.497767 0.135114 -0.314473
0.132456 -0.303818 0.482334
0.164443 -0.295612 -0.494118
0.120433 0.495759 -0.336069
0.147222 -0.509433 -0.327081
0.519202 0.124567 -0.320901
-0.494115 0.132191 -0.313752
0.127687 -0.30669 0.515434
0.151629 -0.316565 -0.499425
0.142113 0.492654 -0.30856
0.120851 -0.506124 -0.282063
0.496254 0.130996 -0.309839
-0.505333 0.141713 -0.319616
0.131133 -0.298528 0.493666
0.122318 -0.299665 -0.490933
0.129657 0.502132 -0.308609
0.144243 -0.506241 -0.29388
0.48791 0.124552 -0.301025
-0.510508 0.134835 -0.311515
0.131111 -0.293957 0.478091
0.117592 -0.288838 -0.491431
0.126451 0.498206 -0.297041
0.118171 -0.503267 -0.275893
0.488435 0.135442 -0.298393
-0.504166 0.133045 -0.288758
0.130327 -0.270311 0.504834
0.118865 -0.265864 -0.50348
0.125039 0.491596 -0.281108
0.130066 -0.496001 -0.283137
0.489986 0.138722 -0.280304
-0.494993 0.119521 -0.290114
0.126719 -0.271123 0.504403
0.136904 -0.241095 -0.482969
0.113949 0.471311 -0.263596
0.1096 -0.491689 -0.268185
0.481717 0.148191 -0.269149
-0.522806 0.115441 -0.274787
0.109718 -0.265669 0.485804
0.116317 -0.2679 -0.492077
0.115789 0.495412 -0.267834
0.133411 -0.492681 -0.259505
0.498997 0.130813 -0.25405
-0.492156 0.117442 -0.254253
0.106221 -0.237172 0.50658
0.131338 -0.247286 -0.512247
0.134769 0.502624 -0.235902
0.122704 -0.494433 -0.241814
0.499335 0.113466 -0.249702
-0.493056 0.129709 -0.243491
0.118238 -0.254398 0.49
0.152404 -0.238645 -0.507171
0.109376 0.506025 -0.23342
0.109595 -0.494514 -0.234042
0.501184 0.130027 -0.237864
-0.497109 0.126534 -0.241963
0.123833 -0.237707 0.506073
0.134709 -0.250866 -0.530598
0.140138 0.505028 -0.224141
0.118026 -0.501607 -0.227139
0.496942 0.108112 -0.242099
-0.504619 0.134275 -0.231331
0.11375 -0.220086 0.502514
0.131179 -0.202026 -0.512957
0.134282 0.508431 -0.226694
0.121821 -0.499148 -0.230115
0.501769 0.131361 -0.224751
-0.512614 0.142238 -0.213136
0.126483 -0.215889 0.501733
0.117714 -0.20478 -0.508814
0.139661 0.489119 -0.206407
0.126073 -0.491251 -0.226138
0.513998 0.12312 -0.211886
-0.505208 0.118509 -0.200394
0.143462 -0.195971 0.509829
0.116748 -0.203468 -0.499194
0.14158 0.493509 -0.178721
0.125055 -0.506805 -0.208046
0.508368 0.133469 -0.207644
-0.496484 0.126559 -0.204859
0.145301 -0.172447 0.500803
0.121201 -0.191703 -0.505098
0.104792 0.520572 -0.178184
0.129557 -0.491388 -0.172409
0.500792 0.133062 -0.168783
-0.499164 0.135522 -0.192568
0.13184 -0.173588 0.507709
0.135456 -0.154725 -0.493575
0.111311 0.497309 -0.193462
0.124821 -0.508499 -0.17949
0.498211 0.122607 -0.159674
-0.497616 0.121709 -0.166998
0.129354 -0.165553 0.486737
0.13028 -0.163074 -0.509168
0.0996903 0.506702 -0.167431
0.122296 -0.4965 -0.173958
0.496526 0.132947 -0.162177
-0.480808 0.128075 -0.160504
0.111695 -0.173012 0.495097
0.127287 -0.15662 -0.505354
0.111659 0.508365 -0.154639
0.141869 -0.486467 -0.152114
0.491758 0.13998 -0.151314
-0.502625 0.126532 -0.154086
0.108536 -0.145175 0.497086
0.123842 -0.158061 -0.494549
0.124181 0.502009 -0.141505
0.131982 -0.496693 -0.145102
0.501027 0.133977 -0.1332
-0.526748 0.136402 -0.155439
0.130607 -0.120056 0.506305
0.138454 -0.127183 -0.479794
0.118413 0.477276 -0.148202
0.126599 -0.494022 -0.141576
0.51091 0.144697 -0.103346
-0.495326 0.114138 -0.129602
0.124692 -0.120291 0.506664
0.110297 -0.114349 -0.513829
0.122135 0.500787 -0.118829
0.117804 -0.497437 -0.121453
0.487087 0.137805 -0.136637
-0.490532 0.140247 -0.133707
0.129075 -0.114879 0.503381
0.119418 -0.11487 -0.497847
0.128265 0.499493 -0.10701
0.13394 -0.481903 -0.110163
0.511315 0.108383 -0.0980169
-0.499754 0.132469 -0.114836
0.125909 -0.11917 0.500335
0.108395 -0.0959936 -0.490622
0.133813 0.499695 -0.0933372
0.132094 -0.506101 -0.126448
0.480151 0.113096 -0.120068
-0.505791 0.150792 -0.107696
0.138503 -0.0711498 0.4941
0.12178 -0.105513 -0.499238
0.125218 0.503973 -0.087549
0.123373 -0.49975 -0.106766
0.494879 0.155042 -0.0858218
-0.49817 0.129366 -0.106318
0.12692 -0.0811978 0.487929
0.121243 -0.108927 -0.511101
0.11766 0.518207 -0.0965704
0.129071 -0.496485 -0.0835379
0.483371 0.127122 -0.0873143
-0.490496 0.120725 -0.0869677
0.121577 -0.0828476 0.486087
0.119468 -0.0696704 -0.502069
0.123801 0.506312 -0.0858033
0.134963 -0.515661 -0.0773522
0.506966 0.120028 -0.0705926
-0.497647 0.122952 -0.0858227
0.12746 -0.0496374 0.5131
0.123543 -0.0564651 -0.491769
0.111734 0.505754 -0.0572422
0.118884 -0.50032 -0.0615194
0.492555 0.125544 -0.0635331
-0.505152 0.11802 -0.0647986
0.131397 -0.0694153 0.494151
0.130115 -0.0666811 -0.50445
0.136267 0.494719 -0.0509809
0.14242 -0.48353 -0.0435873
0.490769 0.126542 -0.0565287
-0.489188 0.123403 -0.0584582
0.124733 -0.0439706 0.482959
0.132716 -0.0475604 -0.4982
0.125906 0.493936 -0.055258
0.117797 -0.498388 -0.0613027
0.508537 0.113451 -0.068272
-0.502071 0.133395 -0.0574678
0.123992 -0.0324379 0.4949
0.121581 -0.0487365 -0.513145
0.139073 0.503535 -0.0513802
0.123941 -0.510706 -0.0301636
0.505534 0.133069 -0.0268884
-0.505559 0.119323 -0.0308015
0.125346 -0.0216524 0.529508
0.11425 -0.0151734 -0.522013
0.124752 0.516867 -0.0256268
0.13031 -0.505255 -0.0175098
0.488623 0.11957 -0.0343582
-0.489615 0.136546 -0.0335259
0.13727 -0.0137506 0.50844
0.100812 0.00131614 -0.495941
0.107997 0.497003 -0.0137986
0.125253 -0.510935 -0.00125618
0.498887 0.130521 -0.017167
-0.497099 0.117935 -0.0136613
0.133366 -0.00742705 0.479218
0.131802 -0.0163483 -0.503495
0.104311 0.487621 0.0019278
0.113955 -0.482035 -0.0166672
0.499468 0.128806 0.00744623
-0.501477 0.122665 0.0123017
0.131507 0.00759463 0.499567
0.133014 0.00443644 -0.493179
0.132872 0.512882 0.000373867
0.123714 -0.519813 0.00845927
0.510018 0.105721 0.00464985
-0.486773 0.135759 0.00332311
0.123849 0.0184636 0.507268
0.120864 0.0257163 -0.48832
0.120777 0.494971 0.0215884
0.117123 -0.485539 0.034713
0.475611 0.128364 0.0397161
-0.495971 0.126818 0.00363495
0.142876 0.0065364 0.496107
0.121243 0.0115158 -0.506435
0.131492 0.529145 0.0278755
0.13048 -0.494877 0.0247774
0.504537 0.111634 0.0292999
-0.503164 0.131126 0.0238843
0.138467 0.0351965 0.482247
0.139767 0.0248177 -0.491804
0.132899 0.508407 0.0368174
0.11476 -0.51559 0.0397273
0.486613 0.117693 0.0257465
-0.500696 0.138538 0.0332863
0.116884 0.047959 0.510734
0.116684 0.0434559 -0.505117
0.122848 0.512097 0.0541298
0.138968 -0.488309 0.0464395
0.492715 0.120615 0.0427764
-0.492051 0.121045 0.0634036
0.123162 0.0476178 0.514035
0.139943 0.0455958 -0.497735
0.131669 0.51197 0.0629952
0.115442 -0.491419 0.0531682
0.497854 0.134432 0.0411207
-0.500941 0.126907 0.0454199
0.120188 0.06749 0.510702
0.140754 0.0701609 -0.493439
0.121319 0.501573 0.0558366
0.13116 -0.503499 0.0648742
0.50521 0.130033 0.0382271
-0.512063 0.128544 0.0678719
0.112602 0.085872 0.502337
0.112497 0.0747681 -0.489644
0.113252 0.503805 0.0827288
0.142031 -0.505411 0.0685344
0.501236 0.126331 0.0771979
-0.495475 0.137446 0.0753803
0.142627 0.101333 0.503323
0.137541 0.102358 -0.505855
0.136055 0.489391 0.0829911
0.125052 -0.500543 0.083002
0.504689 0.137584 0.0951781
-0.516214 0.138396 0.0743543
0.140097 0.0886597 0.503963
0.129366 0.0918939 -0.487601
0.137125 0.509276 0.113377
0.130775 -0.500615 0.085935
0.510208 0.116563 0.103323
-0.499574 0.118669 0.0955749
0.114379 0.109045 0.491269
0.125388 0.102443 -0.502362
0.132147 0.520958 0.105144
0.115856 -0.490107 0.109066
0.501271 0.115614 0.104471
-0.510736 0.131522 0.0916468
0.11941 0.11655 0.505394
0.124565 0.102138 -0.502797
0.123105 0.499945 0.120441
0.126143 -0.499795 0.116489
0.500127 0.114145 0.0944676
-0.483104 0.115991 0.118348
0.124236 0.129042 0.501227
0.120087 0.121554 -0.487935
0.126398 0.509865 0.133259
0.135406 -0.502007 0.124954
0.51203 0.139842 0.122242
-0.502824 0.123924 0.125705
0.126817 0.130585 0.485449
0.125233 0.129677 -0.490189
0.119467 0.498795 0.123034
0.12106 -0.509133 0.126346
0.506352 0.115482 0.131709
-0.502936 0.139686 0.144061
0.127437 0.155397 0.508775
0.140102 0.153102 -0.496277
0.114485 0.483202 0.147022
0.129729 -0.508566 0.135412
0.505359 0.118055 0.133085
-0.484535 0.124351 0.151548
0.132929 0.153954 0.497389
0.123258 0.148195 -0.487843
0.125583 0.495907 0.151787
0.128391 -0.50138 0.178242
0.494568 0.113787 0.152599
-0.500344 0.134237 0.15438
0.135937 0.168519 0.49576
0.134524 0.147242 -0.483696
0.134246 0.486343 0.159363
0.120389 -0.510297 0.176101
0.501686 0.113723 0.161837
-0.494782 0.135701 0.167618
0.138145 0.163776 0.495573
0.12721 0.178352 -0.507437
0.133188 0.508222 0.187919
0.119577 -0.508964 0.182032
0.508435 0.128914 0.176031
-0.500771 0.109195 0.181085
0.117835 0.171803 0.497503
0.121624 0.182265 -0.511429
0.123341 0.496407 0.174679
0.126626 -0.495934 0.187969
0.501259 0.120206 0.178349
-0.497982 0.132884 0.182164
0.131897 0.176243 0.497287
0.130703 0.187527 -0.510122
0.13679 0.496353 0.180013
0.125042 -0.503246 0.201516
0.50291 0.120429 0.198755
-0.501866 0.142332 0.186654
0.13297 0.198918 0.494187
0.130243 0.212438 -0.488389
0.13536 0.504085 0.208559
0.12271 -0.499177 0.216614
0.496636 0.149305 0.21875
-0.505985 0.140098 0.206097
0.135615 0.204018 0.494877
0.132511 0.214409 -0.489341
0.113323 0.50449 0.22869
0.144532 -0.500558 0.214634
0.502212 0.110358 0.217773
-0.517591 0.139262 0.216274
