ply
format ascii 1.0
comment sampling resolution: 0.01
comment noise level: 0.03
comment Created by Open3D
element vertex 1717
property double x
property double y
property double z
end_header
0.237613 0.523124 -0.0218325
0.174116 -0.537512 0.0544652
0.485415 0.193278 0.0405955
-0.511073 0.180755 0.017505
0.244791 0.000863045 0.553312
0.265433 0.0692619 -0.563784
0.205001 0.466608 0.0938241
0.188496 -0.523928 0.000607371
0.509795 0.230817 0.0561618
-0.498672 0.227544 0.0384383
0.237958 0.0448803 0.512563
0.215269 0.0492701 -0.530015
0.16728 0.452085 0.0438666
0.194595 -0.52778 0.0353546
0.501265 0.22195 0.0549753
-0.501228 0.149378 0.0442145
0.213265 0.048652 0.511601
0.151739 0.08083 -0.469887
0.214096 0.488858 0.0574835
0.26085 -0.501211 0.105159
0.49055 0.179045 0.0666195
-0.490893 0.236192 0.0560575
0.215277 0.123805 0.47382
0.176431 0.0959099 -0.521672
0.184591 0.491508 0.0594671
0.193224 -0.548384 0.10255
0.5393 0.193613 0.0839555
-0.45931 0.271118 0.0633792
0.196732 0.105021 0.481471
0.210376 0.0540741 -0.551328
0.181212 0.46655 0.060048
0.172463 -0.535502 0.123957
0.509638 0.206267 0.0617137
-0.492946 0.253573 0.0954719
0.181341 0.134162 0.567066
0.21777 0.0922479 -0.475998
0.130502 0.540352 0.087404
0.181155 -0.512906 0.0980699
0.557485 0.245335 0.0847875
-0.539574 0.215838 0.104429
0.272981 0.0991076 0.486987
0.168864 0.133234 -0.499257
0.211249 0.479628 0.144283
0.209812 -0.493659 0.105602
0.490131 0.196361 0.102035
-0.504029 0.17909 0.047752
0.203951 0.149515 0.562493
0.209831 0.161278 -0.502024
0.267844 0.505586 0.176988
0.246628 -0.491068 0.10192
0.482283 0.179173 0.0949981
-0.484706 0.196515 0.0804588
0.227745 0.150729 0.472445
0.235537 0.13798 -0.447313
0.195438 0.5219 0.114249
0.268352 -0.423196 0.133225
0.480104 0.211142 0.151378
-0.544746 0.205602 0.137516
0.202581 0.155578 0.560279
0.202244 0.108721 -0.461857
0.227323 0.460343 0.19038
0.18442 -0.470883 0.154573
0.519512 0.194357 0.185128
-0.448669 0.189242 0.119388
0.181323 0.127667 0.514201
0.22457 0.164706 -0.51562
0.209233 0.588394 0.124377
0.19771 -0.47256 0.139451
0.564769 0.202813 0.128895
-0.550398 0.229373 0.128381
0.222149 0.197065 0.505326
0.236372 0.119597 -0.498532
0.242395 0.490599 0.144151
0.194307 -0.491997 0.244667
0.473123 0.152211 0.149674
-0.508386 0.238591 0.183713
0.214122 0.148851 0.469013
0.182022 0.193436 -0.485794
0.197122 0.49985 0.16719
0.139855 -0.508463 0.13871
0.4844 0.236029 0.183867
-0.487044 0.184427 0.170654
0.234462 0.181189 0.526635
0.212957 0.191436 -0.496378
0.214191 0.521469 0.16093
0.230583 -0.50872 0.166527
0.450912 0.192113 0.137208
-0.464301 0.170715 0.177942
0.20151 0.141011 0.500013
0.237213 0.134778 -0.460405
0.234079 0.497941 0.201958
0.211546 -0.553205 0.172484
0.467955 0.183488 0.198787
-0.478161 0.20683 0.200023
0.220806 0.20953 0.504121
0.219149 0.186122 -0.509269
0.195608 0.524298 0.19624
0.185708 -0.481506 0.186735
0.497289 0.20376 0.201782
-0.499923 0.244373 0.163955
0.219841 0.209148 0.540614
0.217568 0.188162 -0.533351
0.185506 0.45339 0.244416
0.24599 -0.527036 0.181785
0.44384 0.203946 0.199022
-0.534322 0.255563 0.220796
0.187845 0.224843 0.498725
0.190102 0.235856 -0.526062
0.260172 0.589991 0.238468
0.188613 -0.525388 0.21279
0.477665 0.236686 0.173736
-0.528709 0.135129 0.224069
0.255314 0.203602 0.462472
0.241759 0.266903 -0.488098
0.213617 0.452681 0.226555
0.259831 -0.522979 0.222808
0.47627 0.209732 0.20528
-0.564829 0.197088 0.213663
0.132449 0.211434 0.461467
0.239217 0.193849 -0.482528
0.185117 0.458052 0.21223
0.205716 -0.519936 0.241175
0.470918 0.237928 0.225575
-0.448798 0.163278 0.228401
0.18452 0.204417 0.481202
0.228118 0.246083 -0.487482
0.224372 0.506094 0.23881
0.250726 -0.486327 0.245851
0.490854 0.230854 0.257255
-0.482297 0.198413 0.241411
0.196127 0.256086 0.469935
0.198415 0.273238 -0.528928
0.233155 0.530233 0.303858
0.190871 -0.505573 0.203675
0.467084 0.195896 0.209487
-0.522868 0.228717 0.251481
0.251697 0.274116 0.469448
0.214289 0.264541 -0.505273
0.24351 0.48797 0.261332
0.20115 -0.501323 0.241574
0.489292 0.2176 0.240632
-0.461834 0.178858 0.260954
0.189582 0.238537 0.546359
0.203073 0.287294 -0.48219
0.244456 0.514163 0.281407
0.144933 -0.507089 0.25026
0.531164 0.237699 0.265612
-0.564035 0.222368 0.237315
0.238617 0.227748 0.501532
0.171014 0.284279 -0.509715
0.208468 0.502644 0.251827
0.203852 -0.471044 0.262593
0.532975 0.1924 0.373073
-0.472547 0.222885 0.281929
0.191919 0.290774 0.510496
0.22899 0.331385 -0.488264
0.221975 0.555628 0.297925
0.216773 -0.518693 0.285833
0.491558 0.244977 0.323917
-0.511863 0.177316 0.263047
0.199147 0.257444 0.503682
0.190714 0.275059 -0.496682
0.216989 0.512164 0.313539
0.22982 -0.521607 0.303016
0.467407 0.220454 0.247724
-0.461315 0.193933 0.321417
0.210897 0.334045 0.523446
0.175584 0.297024 -0.46844
0.232152 0.499491 0.289936
0.173885 -0.53642 0.273693
0.527539 0.237157 0.313362
-0.488613 0.209508 0.315401
0.259488 0.334517 0.547872
0.259283 0.308192 -0.507638
0.220167 0.516374 0.297595
0.22677 -0.489573 0.348983
0.51509 0.180288 0.362725
-0.483256 0.232527 0.342198
0.222633 0.341181 0.556282
0.269877 0.350479 -0.522096
0.183958 0.428313 0.319364
0.220807 -0.453343 0.345039
0.481141 0.250624 0.33603
-0.498442 0.242492 0.34997
0.235802 0.345061 0.475164
0.19646 0.348961 -0.511732
0.225161 0.46373 0.272834
0.230298 -0.502256 0.315782
0.482186 0.203053 0.322445
-0.526631 0.254735 0.331162
0.197029 0.405708 0.571578
0.196229 0.333258 -0.44186
0.185669 0.487665 0.281677
0.186377 -0.44959 0.366081
0.48477 0.212405 0.327054
-0.469823 0.197573 0.397774
0.233381 0.372825 0.473877
0.225566 0.389322 -0.521295
0.159571 0.521361 0.405248
0.262361 -0.459464 0.432607
0.46123 0.226017 0.351855
-0.505197 0.186911 0.341409
0.218378 0.414113 0.451161
0.157728 0.396237 -0.463767
0.178485 0.531139 0.395954
0.235244 -0.549763 0.383201
0.511716 0.221005 0.375575
-0.501212 0.25242 0.317247
0.150227 0.431416 0.519182
0.161756 0.337518 -0.446788
0.197787 0.540281 0.4138
0.175922 -0.496684 0.377186
0.509035 0.203153 0.419647
-0.476371 0.225634 0.430319
0.219643 0.419892 0.435412
0.192068 0.445182 -0.516009
0.172862 0.479173 0.379845
0.215456 -0.538194 0.406481
0.545251 0.200274 0.404904
-0.521857 0.209214 0.458713
0.195323 0.417503 0.509355
0.240833 0.422186 -0.460835
0.210405 0.525602 0.444142
0.214445 -0.493589 0.395381
0.487443 0.225268 0.446071
-0.505122 0.160066 0.4043
0.20179 0.435307 0.526068
0.221935 0.427217 -0.435442
0.178421 0.54377 0.407833
0.199699 -0.548118 0.420654
0.521792 0.230141 0.41387
-0.483468 0.21061 0.400615
0.195715 0.431616 0.503447
0.158385 0.426318 -0.526064
0.234024 0.440235 0.424198
0.144952 -0.523004 0.351213
0.525614 0.183546 0.423831
-0.47672 0.221563 0.422905
0.19956 0.397512 0.507522
0.233403 0.389506 -0.526317
0.218312 0.527764 0.396533
0.210248 -0.499391 0.416423
0.517506 0.251149 0.438078
-0.544058 0.207982 0.410297
0.179225 0.431651 0.526207
0.219107 0.418861 -0.476011
0.196902 0.463927 0.466518
0.204313 -0.490571 0.494572
0.505116 0.175625 0.424823
-0.517134 0.217028 0.495101
0.172971 0.4245 0.502452
0.233769 0.451428 -0.489714
0.16437 0.489287 0.450393
0.1691 -0.429934 0.422162
0.518321 0.170553 0.453633
-0.527781 0.181726 0.41571
0.219537 0.533395 0.488396
0.212544 0.450161 -0.48053
0.155112 0.505833 0.46586
0.195125 -0.510884 0.447979
0.50864 0.216032 0.491307
-0.44106 0.174301 0.432889
0.229347 0.470711 0.546072
0.230888 0.452922 -0.542025
0.223377 0.543854 0.484881
0.178646 -0.504402 0.520021
0.478356 0.210505 0.472399
-0.444644 0.17379 0.449294
0.206029 0.513907 0.521043
0.249913 0.546744 -0.488483
0.263973 0.486137 0.469839
0.227707 -0.515763 0.468019
0.491816 0.230486 0.48728
-0.517217 0.167917 0.467055
0.236591 0.488261 0.49454
0.12549 0.507085 -0.510086
0.20799 0.521085 0.524232
0.227968 -0.518416 0.478206
0.452958 0.202969 0.509442
-0.503869 0.132568 0.533059
0.194904 -0.492794 0.495133
0.174359 -0.489592 -0.509775
0.248448 0.509941 -0.483666
0.272025 -0.438541 -0.520539
0.528821 0.209325 -0.502563
-0.464137 0.193532 -0.525419
0.232106 -0.457806 0.486544
0.248182 -0.513591 -0.555417
0.272014 0.468622 -0.508631
0.205304 -0.481586 -0.474416
0.518914 0.290733 -0.484724
-0.488322 0.188251 -0.508552
0.20098 -0.448206 0.474314
0.234615 -0.474985 -0.469695
0.253606 0.525222 -0.414004
0.199043 -0.502334 -0.430084
0.50832 0.210377 -0.458715
-0.484122 0.19587 -0.469857
0.173982 -0.538407 0.515546
0.210719 -0.449476 -0.533256
0.20987 0.474785 -0.478657
0.259295 -0.523751 -0.449132
0.492398 0.23185 -0.469842
-0.50459 0.226794 -0.514978
0.235358 -0.501522 0.524969
0.193837 -0.473797 -0.484014
0.215885 0.528502 -0.417622
0.251991 -0.482132 -0.446909
0.566324 0.178812 -0.460729
-0.540616 0.227782 -0.454565
0.225245 -0.456664 0.47417
0.200341 -0.494005 -0.498203
0.183954 0.500364 -0.489203
0.235684 -0.496807 -0.435593
0.481864 0.20043 -0.458676
-0.496303 0.222543 -0.476527
0.154019 -0.428707 0.490223
0.206385 -0.46636 -0.443159
0.17832 0.516663 -0.443958
0.14299 -0.52887 -0.413526
0.513306 0.21146 -0.504502
-0.554097 0.212655 -0.455021
0.228871 -0.432525 0.526947
0.222816 -0.361717 -0.514702
0.264474 0.506842 -0.443292
0.200618 -0.434158 -0.424766
0.507446 0.223199 -0.424016
-0.510578 0.181119 -0.43929
0.291467 -0.436276 0.522195
0.214298 -0.333669 -0.555601
0.242413 0.48262 -0.387084
0.233254 -0.500349 -0.435934
0.517807 0.22625 -0.433568
-0.484525 0.199542 -0.41857
0.226888 -0.4208 0.471657
0.223259 -0.389794 -0.51592
0.274528 0.471803 -0.441012
0.233881 -0.47995 -0.430904
0.516794 0.188404 -0.411142
-0.521369 0.20966 -0.420704
0.220871 -0.430782 0.480988
0.221048 -0.382936 -0.515119
0.207778 0.532033 -0.402514
0.24668 -0.502002 -0.404036
0.496043 0.216374 -0.362895
-0.475795 0.269956 -0.368601
0.182911 -0.364848 0.48195
0.169848 -0.374006 -0.507179
0.234327 0.487913 -0.425999
0.209102 -0.463516 -0.473029
0.495313 0.269104 -0.363766
-0.487053 0.225217 -0.396041
0.200277 -0.363998 0.529435
0.220472 -0.370262 -0.503135
0.221353 0.504909 -0.405116
0.166826 -0.498252 -0.353735
0.459837 0.129196 -0.386545
-0.492389 0.237532 -0.365948
0.192386 -0.381885 0.462855
0.173015 -0.359367 -0.529009
0.220825 0.479986 -0.397482
0.230067 -0.47216 -0.369067
0.464021 0.220946 -0.327558
-0.489128 0.204832 -0.38259
0.270286 -0.388942 0.486504
0.209068 -0.372582 -0.565674
0.232032 0.47497 -0.395425
0.193777 -0.447842 -0.355246
0.459774 0.200975 -0.344549
-0.518261 0.240083 -0.351351
0.195305 -0.332671 0.492787
0.263012 -0.312706 -0.475593
0.235386 0.463862 -0.346475
0.150407 -0.47217 -0.339336
0.482438 0.209916 -0.324425
-0.514741 0.133281 -0.355226
0.241822 -0.382415 0.514174
0.226416 -0.354578 -0.470026
0.214733 0.515975 -0.338772
0.178037 -0.457549 -0.325494
0.533497 0.226748 -0.35591
-0.523174 0.24062 -0.345458
0.20429 -0.327976 0.488339
0.253215 -0.33472 -0.520035
0.207443 0.499909 -0.323048
0.24574 -0.461521 -0.338663
0.48749 0.22601 -0.35177
-0.522045 0.198326 -0.274421
0.191522 -0.299779 0.525406
0.227935 -0.279328 -0.520772
0.19527 0.436791 -0.335149
0.240447 -0.46549 -0.316028
0.500898 0.210449 -0.306942
-0.461371 0.199397 -0.278635
0.211964 -0.276813 0.47629
0.302881 -0.284175 -0.529411
0.217726 0.47761 -0.298024
0.20446 -0.449887 -0.333375
0.515161 0.226104 -0.343289
-0.509492 0.21194 -0.261302
0.257334 -0.332689 0.494538
0.255661 -0.269245 -0.510793
0.146976 0.488692 -0.27688
0.210055 -0.472735 -0.353075
0.491895 0.213772 -0.258702
-0.488863 0.267238 -0.315054
0.255115 -0.315878 0.433988
0.222864 -0.254792 -0.550147
0.199449 0.504043 -0.271695
0.190548 -0.44466 -0.297109
0.443277 0.236561 -0.344473
-0.492392 0.225919 -0.281769
0.213217 -0.287904 0.497004
0.201524 -0.23228 -0.527054
0.218774 0.461045 -0.251497
0.196684 -0.521199 -0.25028
0.509257 0.191281 -0.318681
-0.486101 0.192323 -0.271531
0.255128 -0.232716 0.548594
0.219299 -0.277661 -0.49632
0.220328 0.440709 -0.318056
0.202122 -0.526605 -0.259859
0.514909 0.22995 -0.232448
-0.50958 0.262162 -0.269402
0.17112 -0.278678 0.48968
0.176254 -0.263287 -0.483802
0.186239 0.459089 -0.276026
0.188401 -0.509824 -0.244856
0.476562 0.184378 -0.261974
-0.544115 0.206721 -0.276069
0.23236 -0.229109 0.502401
0.233542 -0.266327 -0.493496
0.205764 0.521504 -0.23497
0.175369 -0.503329 -0.228287
0.497252 0.216933 -0.274326
-0.473701 0.213098 -0.291602
0.191817 -0.310801 0.490106
0.174406 -0.175431 -0.516988
0.224297 0.505732 -0.250838
0.228603 -0.472363 -0.234968
0.495334 0.181367 -0.225493
-0.488186 0.249683 -0.238899
0.153089 -0.257099 0.532765
0.239331 -0.199149 -0.522999
0.246522 0.463443 -0.221377
0.182323 -0.497438 -0.237506
0.509037 0.238989 -0.174501
-0.515538 0.222244 -0.239214
0.240967 -0.197942 0.502844
0.175722 -0.186435 -0.544434
0.181301 0.47546 -0.22849
0.214493 -0.439735 -0.263137
0.501451 0.203196 -0.242654
-0.522638 0.185944 -0.22829
0.191346 -0.245429 0.505789
0.249424 -0.167731 -0.520564
0.180005 0.535797 -0.206827
0.205127 -0.523876 -0.29409
0.502233 0.231083 -0.152983
-0.487109 0.162319 -0.167505
0.25181 -0.198625 0.53443
0.215026 -0.214488 -0.4743
0.184796 0.425054 -0.180021
0.181096 -0.549152 -0.225289
0.469777 0.219672 -0.183076
-0.512671 0.24479 -0.197454
0.201157 -0.21873 0.495381
0.195224 -0.197217 -0.525149
0.18706 0.510775 -0.176753
0.225739 -0.481642 -0.189927
0.530068 0.19822 -0.220238
-0.488995 0.211949 -0.196295
0.200816 -0.201067 0.505833
0.205545 -0.167007 -0.459628
0.181487 0.515983 -0.151566
0.251638 -0.497255 -0.138786
0.465432 0.196708 -0.154025
-0.504763 0.23308 -0.176488
0.230267 -0.119857 0.528285
0.214293 -0.168813 -0.493267
0.223548 0.545683 -0.163275
0.235085 -0.51629 -0.174277
0.494739 0.19707 -0.188688
-0.5359 0.216219 -0.177519
0.243871 -0.181083 0.503313
0.137342 -0.152873 -0.573044
0.209134 0.487209 -0.16271
0.286042 -0.510264 -0.180174
0.466953 0.206744 -0.152401
-0.538036 0.180147 -0.144318
0.237132 -0.144646 0.461602
0.230796 -0.155726 -0.429295
0.22408 0.54345 -0.189631
0.21331 -0.54336 -0.191645
0.551128 0.187081 -0.149554
-0.51997 0.22619 -0.110244
0.249328 -0.149501 0.505069
0.203347 -0.0996533 -0.532432
0.214202 0.505891 -0.093712
0.238208 -0.491677 -0.21254
0.473454 0.159782 -0.139933
-0.49276 0.274345 -0.117917
0.205861 -0.126546 0.484348
0.20081 -0.169257 -0.472175
0.185293 0.488706 -0.127127
0.225845 -0.47651 -0.157597
0.447106 0.203325 -0.133894
-0.526232 0.247782 -0.107133
0.243969 -0.122322 0.496111
0.220008 -0.135414 -0.445368
0.219958 0.528384 -0.147031
0.268277 -0.522293 -0.153905
0.508708 0.200194 -0.119864
-0.493425 0.200607 -0.139376
0.222652 -0.0783167 0.602946
0.225831 -0.0954444 -0.523024
0.220636 0.474303 -0.141414
0.199234 -0.480868 -0.0957107
0.569782 0.226989 -0.119626
-0.531128 0.196162 -0.100026
0.213159 -0.0854779 0.493394
0.24464 -0.115046 -0.464493
0.225282 0.489187 -0.0871857
0.239188 -0.510011 -0.104608
0.471993 0.232447 -0.0897625
-0.458041 0.216327 -0.087934
0.183917 -0.124001 0.530563
0.263043 -0.10095 -0.451827
0.197278 0.55492 -0.113964
0.231169 -0.485452 -0.10599
0.480161 0.254954 -0.0619183
-0.563555 0.227932 -0.079432
0.249498 -0.0501074 0.535246
0.242711 -0.0926987 -0.509046
0.170079 0.485134 -0.0048285
0.276796 -0.525251 -0.108607
0.491395 0.133922 -0.0799213
-0.543202 0.219431 -0.109951
0.190415 -0.0315107 0.554373
0.199978 -0.102446 -0.487991
0.146579 0.540207 -0.0632716
0.300414 -0.493845 -0.0753766
0.494389 0.205976 -0.0338442
-0.475153 0.156627 -0.0850797
0.209929 -0.022311 0.476636
0.241617 -0.0764641 -0.498818
0.24776 0.493567 -0.0327289
0.268045 -0.48903 -0.0506034
0.472017 0.232907 -0.112521
-0.495328 0.238677 -0.0443709
0.253313 -0.108801 0.453738
0.202361 -0.0435169 -0.495376
0.241582 0.532853 -0.0428936
0.186582 -0.479917 -0.0379476
0.551984 0.221316 -0.0301064
-0.50085 0.257507 -0.0184123
0.234914 -0.00737536 0.54465
0.177525 -0.0430372 -0.528749
0.207934 0.536239 -0.0201193
0.21317 -0.466914 0.0359076
0.479733 0.204531 -0.0181497
-0.5477 0.23473 -0.0690855
0.25192 -0.0733215 0.462641
0.238417 0.0192297 -0.48781
0.223755 0.508624 -0.0209797
0.174007 -0.520516 -0.0448087
0.499581 0.229972 -0.00922098
-0.503988 0.290719 -0.0392496
0.236019 -0.0116581 0.47088
0.215078 0.024376 -0.472154
0.23307 0.534901 0.0117742
0.214173 -0.476576 -0.0458575
0.510187 0.215473 -0.0214274
-0.594823 0.244358 -0.0140993
0.226864 -0.00876928 0.487697
0.199402 -0.028884 -0.497769
0.273382 0.490315 0.00521049
0.186492 -0.543512 -0.0365767
0.496081 0.193156 -0.0164455
-0.502436 0.196088 -0.0152307
0.22962 -0.0247161 0.521889
0.243395 -0.000665923 -0.531252
0.23414 0.540629 -0.0508754
0.229785 -0.494554 0.0650329
0.502844 0.212418 -0.0123279
-0.513718 0.211224 -0.0122028
0.196684 -0.0328588 0.489349
0.204479 0.016468 -0.488135
0.277135 0.510674 0.0420047
0.227724 -0.495905 0.0439595
0.508902 0.241938 0.0289726
-0.495576 0.19015 0.0292435
0.191157 0.0732417 0.529308
0.268891 0.0495983 -0.452108
0.219349 0.48919 0.00686605
0.208527 -0.509593 -0.00745674
0.520709 0.259174 -0.0131574
-0.526076 0.202372 -0.0346734
0.233058 0.0115497 0.502359
0.201784 0.053632 -0.479721
0.243129 0.542121 -0.0603423
0.259729 -0.437331 0.0185856
0.525745 0.264088 0.0576204
-0.497782 0.186096 0.0583919
0.213117 0.00808476 0.4839
0.181385 0.013199 -0.51243
0.227243 0.436412 0.0804908
0.242592 -0.491998 0.0170306
0.538031 0.163938 0.0325154
-0.514835 0.226883 0.0444023
0.233451 -0.0168189 0.516599
0.188195 0.135929 -0.456854
0.251239 0.478677 0.0401514
0.187057 -0.488036 0.0566774
0.480114 0.212008 0.0414499
-0.49923 0.167218 0.0356838
0.196235 0.0696382 0.499117
0.212656 0.0926277 -0.502209
0.279082 0.496962 0.106606
0.242433 -0.499038 0.0118421
0.513587 0.20508 0.072117
-0.541953 0.262627 0.0607738
0.185618 0.0531916 0.501314
0.206728 0.0437085 -0.486258
0.26864 0.534553 0.0446008
0.257463 -0.50427 0.0798001
0.484606 0.227435 0.0806637
-0.517222 0.238557 0.0809006
0.23214 0.0510376 0.507265
0.209761 0.0702046 -0.520646
0.291347 0.522397 0.0940906
0.216289 -0.514769 0.0821442
0.484985 0.24314 0.104252
-0.455069 0.2259 0.0692886
0.187319 0.0767676 0.499347
0.238752 0.0848679 -0.498127
0.152863 0.540744 0.0333272
0.201332 -0.512827 0.0740978
0.531098 0.217436 0.0771101
-0.504952 0.200147 0.109496
0.202211 0.0662375 0.527894
0.201025 0.0928838 -0.474815
0.201119 0.408713 0.104035
0.205772 -0.458544 0.0982758
0.452952 0.229553 0.0968653
-0.491971 0.171529 0.100034
0.230246 0.0605283 0.528045
0.182469 0.0584909 -0.501377
0.287406 0.500834 0.103979
0.208861 -0.498784 0.101943
0.491826 0.234968 0.115129
-0.504953 0.196155 0.115215
0.228843 0.164654 0.528213
0.210836 0.0897907 -0.488063
0.168035 0.493655 0.112486
0.212975 -0.513298 0.133974
0.53755 0.21291 0.152898
-0.48901 0.182286 0.137024
0.180012 0.131466 0.484909
0.20767 0.160227 -0.454604
0.184074 0.507115 0.128763
0.203956 -0.522078 0.108825
0.541966 0.196408 0.157753
-0.471579 0.240223 0.0982126
0.20895 0.127526 0.513594
0.201397 0.141735 -0.477175
0.226522 0.542066 0.163088
0.250502 -0.496628 0.150547
0.52632 0.21297 0.158865
-0.5255 0.21131 0.187074
0.174185 0.177171 0.471802
0.241976 0.146814 -0.510168
0.190524 0.457771 0.138529
0.153297 -0.507048 0.163912
0.48565 0.203097 0.180345
-0.464111 0.19163 0.217233
0.254369 0.19771 0.430766
0.219817 0.174648 -0.56169
0.222856 0.529746 0.206379
0.213128 -0.48733 0.185727
0.460308 0.177446 0.141484
-0.455865 0.208134 0.171576
0.241961 0.145976 0.471711
0.25452 0.14567 -0.477373
0.163293 0.53518 0.10708
0.21095 -0.548525 0.149989
0.560207 0.223698 0.124717
-0.533898 0.216124 0.197775
0.264251 0.168911 0.55373
0.205299 0.198955 -0.506214
0.205332 0.562968 0.203282
0.247242 -0.45282 0.164428
0.554848 0.151944 0.235104
-0.462017 0.187455 0.168245
0.212361 0.204787 0.479642
0.240035 0.1905 -0.543079
0.154984 0.521438 0.200402
0.196526 -0.473976 0.243895
0.502343 0.20769 0.166393
-0.532352 0.262629 0.204316
0.22623 0.169063 0.451674
0.188242 0.194358 -0.533033
0.23945 0.502222 0.258043
0.268813 -0.41985 0.133759
0.454744 0.229839 0.252283
-0.467817 0.188531 0.218803
0.161423 0.234027 0.4522
0.174812 0.189835 -0.462576
0.216663 0.462862 0.202883
0.231799 -0.487293 0.202413
0.494629 0.258943 0.212775
-0.48632 0.229352 0.169953
0.240683 0.236826 0.475619
0.216538 0.221275 -0.501759
0.210275 0.461627 0.186746
0.211192 -0.495192 0.220086
0.557519 0.233243 0.240978
-0.505721 0.177509 0.161349
0.225394 0.247096 0.516025
0.222238 0.225405 -0.489512
0.224032 0.439283 0.187065
0.180506 -0.496924 0.258882
0.504487 0.167572 0.22854
-0.497911 0.192076 0.218264
0.218033 0.232617 0.486223
0.244969 0.241777 -0.486093
0.205366 0.465873 0.195097
0.241206 -0.544909 0.227035
0.501582 0.197674 0.202371
-0.460866 0.183601 0.285331
0.234904 0.271757 0.5055
0.22118 0.2489 -0.539558
0.214568 0.502474 0.31557
0.215189 -0.468214 0.21068
0.540834 0.216075 0.316562
-0.483743 0.258068 0.234809
0.181438 0.229167 0.501825
0.256171 0.318463 -0.460845
0.215428 0.509356 0.307468
0.205005 -0.423618 0.231502
0.462868 0.174163 0.28928
-0.550004 0.16483 0.253025
0.216244 0.262112 0.49128
0.24901 0.268308 -0.444415
0.217348 0.497302 0.276376
0.18524 -0.522798 0.279406
0.449643 0.254695 0.266377
-0.511751 0.224541 0.286069
0.166821 0.272379 0.524536
0.21744 0.303577 -0.500764
0.22684 0.54298 0.302275
0.268529 -0.543143 0.326336
0.490249 0.193545 0.25184
-0.520279 0.194943 0.252271
0.146329 0.294782 0.515449
0.214249 0.28236 -0.518521
0.243893 0.548967 0.319019
0.198473 -0.521771 0.301683
0.490049 0.207937 0.309857
-0.440647 0.242099 0.319534
0.212405 0.296634 0.513396
0.251971 0.302867 -0.530198
0.20202 0.497146 0.316943
0.229171 -0.473072 0.305929
0.547907 0.227409 0.260252
-0.496755 0.149004 0.337761
0.244508 0.271392 0.515538
0.19908 0.309455 -0.535936
0.243024 0.515376 0.313761
0.218532 -0.493561 0.287449
0.558251 0.218068 0.37137
-0.551376 0.211228 0.318749
0.236436 0.334844 0.459743
0.213648 0.299351 -0.459775
0.24398 0.521041 0.356641
0.274226 -0.462601 0.344529
0.534044 0.276904 0.395668
-0.509854 0.142299 0.313515
0.186425 0.306832 0.462218
0.21881 0.375911 -0.467356
0.210719 0.517082 0.351589
0.223718 -0.443455 0.342983
0.457278 0.21981 0.34658
-0.524759 0.214261 0.368948
0.249462 0.346238 0.496618
0.249976 0.346789 -0.454164
0.216359 0.536241 0.334612
0.247902 -0.51829 0.341859
0.488765 0.217959 0.357735
-0.474451 0.219471 0.352548
0.213928 0.376658 0.567662
0.189304 0.341811 -0.499427
0.209544 0.536725 0.3983
0.250458 -0.479155 0.344142
0.489541 0.182797 0.339861
-0.474894 0.256391 0.351404
0.189652 0.35755 0.511074
0.168252 0.364143 -0.470551
0.22289 0.487642 0.365397
0.213204 -0.54265 0.44385
0.558471 0.232416 0.317661
-0.493438 0.205541 0.36537
0.192504 0.381866 0.442177
0.181622 0.427268 -0.475726
0.236497 0.476861 0.376044
0.222765 -0.527444 0.438147
0.507937 0.215614 0.379168
-0.547982 0.186607 0.42327
0.256418 0.382478 0.491062
0.162669 0.440412 -0.512683
0.163329 0.487642 0.361669
0.191439 -0.469603 0.429257
0.457702 0.243055 0.421521
-0.501417 0.189894 0.412832
0.202051 0.418591 0.486695
0.154347 0.415265 -0.46837
0.223846 0.432228 0.41548
0.235622 -0.509615 0.395865
0.544077 0.218359 0.377393
-0.500701 0.210924 0.377325
0.224321 0.464923 0.497944
0.1916 0.403718 -0.531329
0.248031 0.488364 0.405587
0.252462 -0.479646 0.372863
0.507751 0.219291 0.41502
-0.508584 0.258483 0.412715
0.27725 0.423372 0.546776
0.189288 0.408666 -0.520361
0.188874 0.519384 0.397317
0.192883 -0.504157 0.396819
0.487995 0.188055 0.427405
-0.478714 0.210195 0.415557
0.170072 0.429454 0.478692
0.210753 0.411328 -0.526551
0.258505 0.566415 0.466204
0.163075 -0.481497 0.457256
0.441097 0.234314 0.415023
-0.462031 0.198656 0.385065
0.255027 0.457649 0.4767
0.254057 0.457934 -0.50507
0.2382 0.511764 0.481462
0.191282 -0.500069 0.416974
0.461744 0.191585 0.450604
-0.496181 0.203662 0.386469
0.22598 0.430859 0.510061
0.230537 0.434867 -0.49557
0.24849 0.481738 0.508784
0.216285 -0.576216 0.415296
0.474587 0.21323 0.416762
-0.560254 0.151655 0.431427
0.265598 0.44018 0.46254
0.18275 0.487124 -0.453431
0.199279 0.511117 0.509823
0.207718 -0.537116 0.466185
0.440045 0.197526 0.442045
-0.459082 0.175817 0.438122
0.242333 0.461301 0.566779
0.23135 0.433906 -0.472592
0.210727 0.537312 0.500213
0.217888 -0.524716 0.516473
0.506714 0.252583 0.467148
-0.517302 0.172853 0.465712
0.202021 0.493461 0.469343
0.202816 0.501859 -0.497299
0.151694 0.520431 0.477309
0.209564 -0.451273 0.498582
0.511204 0.229932 0.424821
-0.566382 0.202977 0.518205
0.239476 0.454719 0.486817
0.183317 0.511008 -0.538078
0.233849 0.488621 0.457053
0.20138 -0.522635 0.457969
0.570319 0.17294 0.520249
-0.506657 0.288563 0.516982
0.198778 0.500596 0.503255
0.230051 0.531291 -0.513751
0.279434 0.517027 0.506539
0.253356 -0.509127 0.523048
0.535986 0.238835 0.483617
-0.5401 0.240218 0.536227
0.252704 -0.51735 0.532616
0.218143 -0.461264 -0.517366
0.220913 0.531479 -0.469996
0.224569 -0.577222 -0.463181
0.464477 0.238841 -0.503956
-0.534842 0.281185 -0.521703
0.213596 -0.494636 0.496767
0.215683 -0.512794 -0.512767
0.162308 0.493039 -0.497839
0.228483 -0.443871 -0.456249
0.462392 0.223825 -0.45482
-0.485436 0.235613 -0.497
0.228529 -0.503782 0.484347
0.204594 -0.481052 -0.515642
0.254477 0.496491 -0.443723
0.257322 -0.522357 -0.503328
0.460566 0.213082 -0.51035
-0.455597 0.244164 -0.466771
0.213616 -0.472734 0.519012
0.198377 -0.419059 -0.48364
0.212651 0.538491 -0.504489
0.203365 -0.463141 -0.512634
0.519224 0.186437 -0.520177
-0.443731 0.247974 -0.424647
0.256061 -0.434004 0.497392
0.322279 -0.445178 -0.527222
0.201392 0.510056 -0.49559
0.218393 -0.510168 -0.477507
0.505172 0.236157 -0.437622
-0.473254 0.234269 -0.456604
0.237874 -0.433884 0.495285
0.249304 -0.468606 -0.495167
0.219107 0.478932 -0.450469
0.21969 -0.474148 -0.379353
0.487332 0.244995 -0.466766
-0.495094 0.226623 -0.491167
0.208037 -0.42433 0.526301
0.199484 -0.445589 -0.468029
0.256922 0.465013 -0.48065
0.250923 -0.486577 -0.418367
0.496352 0.181329 -0.500747
-0.45576 0.297458 -0.382262
0.167203 -0.454614 0.557939
0.244399 -0.445263 -0.498039
0.234229 0.479486 -0.389588
0.286822 -0.518466 -0.417778
0.525492 0.196975 -0.423522
-0.491812 0.184341 -0.46115
0.220019 -0.395107 0.479769
0.218869 -0.427585 -0.530914
0.209515 0.527033 -0.4395
0.212312 -0.504066 -0.397853
0.520928 0.262896 -0.440462
-0.500395 0.310875 -0.395819
0.218439 -0.442151 0.465968
0.219475 -0.414118 -0.517979
0.238515 0.528337 -0.429287
0.253319 -0.470845 -0.375217
0.530012 0.192294 -0.386101
-0.507649 0.280571 -0.434067
0.207149 -0.401823 0.567785
0.176474 -0.455632 -0.491056
0.204792 0.489943 -0.403162
0.212811 -0.487524 -0.349912
0.500327 0.279098 -0.426179
-0.517941 0.255872 -0.380044
0.165039 -0.38215 0.459023
0.244679 -0.391712 -0.514129
0.182408 0.545556 -0.405076
0.183078 -0.533926 -0.393127
0.570996 0.279192 -0.382668
-0.519738 0.202834 -0.379549
0.193645 -0.437559 0.522799
0.223341 -0.384881 -0.520128
0.210594 0.487736 -0.377816
0.246489 -0.531347 -0.355271
0.555523 0.206408 -0.364436
-0.479054 0.256361 -0.41575
0.23991 -0.345293 0.46156
0.231632 -0.33784 -0.44944
0.176949 0.457333 -0.3997
0.190321 -0.491985 -0.411162
0.508609 0.185945 -0.420165
-0.526871 0.270485 -0.374637
0.212283 -0.345994 0.501215
0.276324 -0.326182 -0.464556
0.205396 0.472255 -0.369681
0.215935 -0.506636 -0.372497
0.525743 0.224209 -0.381287
-0.555529 0.273288 -0.33854
0.179008 -0.350943 0.502774
0.272644 -0.354315 -0.544489
0.231536 0.550151 -0.353376
0.242008 -0.457853 -0.33749
0.503776 0.218603 -0.332423
-0.48243 0.246873 -0.311316
0.233235 -0.339633 0.485639
0.232117 -0.340734 -0.54213
0.24981 0.504658 -0.2883
0.236402 -0.466154 -0.316541
0.505602 0.196795 -0.320847
-0.465389 0.269996 -0.387089
0.241639 -0.332579 0.534938
0.224746 -0.341978 -0.470677
0.221416 0.473874 -0.354762
0.214962 -0.48224 -0.375579
0.519313 0.242113 -0.288064
-0.561532 0.207386 -0.354855
0.269186 -0.287179 0.504738
0.224159 -0.318841 -0.444632
0.232709 0.493724 -0.373003
0.218743 -0.538067 -0.319517
0.466742 0.21691 -0.372021
-0.484313 0.196006 -0.297847
0.224157 -0.321028 0.502193
0.188109 -0.313669 -0.503685
0.232807 0.543043 -0.315976
0.206258 -0.511256 -0.374812
0.520488 0.188606 -0.354971
-0.490773 0.216721 -0.328967
0.244196 -0.304375 0.492624
0.223098 -0.231435 -0.514275
0.234043 0.514798 -0.323861
0.31758 -0.52808 -0.255693
0.529309 0.200476 -0.283798
-0.529901 0.291865 -0.308997
0.234832 -0.273368 0.506235
0.210483 -0.251476 -0.476918
0.201512 0.487994 -0.273773
0.212966 -0.514805 -0.261999
0.473603 0.246047 -0.301734
-0.512003 0.273921 -0.307038
0.207635 -0.215627 0.549583
0.166052 -0.30483 -0.475744
0.210186 0.437529 -0.272332
0.262129 -0.486234 -0.27977
0.474756 0.222504 -0.289299
-0.512298 0.18656 -0.279486
0.242635 -0.223656 0.499962
0.203561 -0.276429 -0.480586
0.216164 0.459191 -0.257977
0.247539 -0.495425 -0.250859
0.559431 0.213524 -0.286267
-0.489291 0.225352 -0.267924
0.170832 -0.235291 0.460883
0.238989 -0.249166 -0.490871
0.230093 0.522988 -0.23375
0.250848 -0.48106 -0.209567
0.507373 0.212105 -0.26097
-0.549918 0.213275 -0.307136
0.262226 -0.214071 0.574895
0.198576 -0.290585 -0.493009
0.246903 0.536503 -0.269495
0.22078 -0.562951 -0.27558
0.482819 0.292374 -0.261913
-0.497964 0.223525 -0.266262
0.235248 -0.260874 0.529899
0.253901 -0.263488 -0.422549
0.231805 0.520874 -0.255337
0.253657 -0.441068 -0.238522
0.504485 0.211737 -0.228049
-0.530935 0.225737 -0.27563
0.219815 -0.222229 0.462684
0.208021 -0.174531 -0.545889
0.248119 0.466835 -0.272121
0.271881 -0.545056 -0.219397
0.488716 0.223193 -0.241455
-0.505103 0.222876 -0.225416
0.272427 -0.248899 0.444204
0.19437 -0.233818 -0.464238
0.194671 0.511912 -0.230176
0.229325 -0.519121 -0.251787
0.519469 0.22953 -0.221931
-0.460846 0.210498 -0.239195
0.207498 -0.243548 0.521103
0.276262 -0.211533 -0.539745
0.193496 0.524485 -0.183546
0.176618 -0.524167 -0.198615
0.510053 0.167946 -0.267341
-0.503747 0.233011 -0.200223
0.282207 -0.259446 0.483687
0.243701 -0.191864 -0.475719
0.2335 0.473841 -0.298089
0.252529 -0.482628 -0.210791
0.493673 0.298477 -0.251295
-0.507861 0.298241 -0.177272
0.252982 -0.171838 0.483292
0.240429 -0.210243 -0.494857
0.238046 0.462877 -0.197453
0.238311 -0.489061 -0.195434
0.476926 0.211454 -0.198801
-0.507521 0.27897 -0.185781
0.271911 -0.168604 0.470637
0.234522 -0.203987 -0.507587
0.23763 0.432112 -0.196505
0.163649 -0.472237 -0.224929
0.507651 0.149029 -0.202292
-0.584543 0.213581 -0.164147
0.242201 -0.108572 0.499248
0.210472 -0.185209 -0.49233
0.206199 0.497322 -0.136287
0.268758 -0.492981 -0.169652
0.464912 0.231148 -0.190335
-0.439901 0.240872 -0.14358
0.253818 -0.15767 0.509941
0.245336 -0.152499 -0.506056
0.173275 0.498524 -0.227993
0.210476 -0.44383 -0.11842
0.535979 0.173967 -0.140232
-0.519195 0.152697 -0.178126
0.176308 -0.153865 0.539457
0.190529 -0.161296 -0.477433
0.206935 0.464172 -0.117655
0.173614 -0.516914 -0.203636
0.474263 0.219908 -0.217212
-0.532149 0.21458 -0.152418
0.257203 -0.12424 0.477654
0.160418 -0.164905 -0.519481
0.26721 0.520524 -0.130742
0.226899 -0.521614 -0.159198
0.509555 0.212613 -0.121852
-0.485036 0.233853 -0.152618
0.219502 -0.1532 0.482106
0.211418 -0.141894 -0.482502
0.243313 0.496663 -0.165666
0.225016 -0.533903 -0.128333
0.507606 0.240289 -0.178244
-0.47046 0.202024 -0.168871
0.254438 -0.158176 0.517196
0.245822 -0.084289 -0.472419
0.147546 0.481291 -0.155305
0.219587 -0.555062 -0.105106
0.530428 0.268824 -0.0941297
-0.503043 0.239108 -0.110942
0.219581 -0.125072 0.51309
0.251887 -0.0532061 -0.47863
0.210318 0.440028 -0.124579
0.174358 -0.508735 -0.104263
0.523226 0.257277 -0.0877893
-0.455654 0.269715 -0.0762138
0.195577 -0.112262 0.471097
0.187559 -0.0623294 -0.510723
0.225633 0.456716 -0.0905902
0.248086 -0.522279 -0.102312
0.531417 0.229494 -0.0883456
-0.499412 0.215007 -0.0790282
0.192325 -0.0645775 0.491819
0.254101 -0.113706 -0.526702
0.191622 0.512925 -0.0953284
0.252569 -0.491133 -0.0395103
0.495274 0.222896 -0.111272
-0.535443 0.250203 -0.0827129
0.216469 -0.0887616 0.540106
0.20214 -0.0579502 -0.530783
0.181835 0.480767 -0.0670922
0.212038 -0.513278 -0.044927
0.519453 0.155646 -0.0365689
-0.457142 0.246697 -0.0679669
0.229407 -0.0170157 0.459594
0.242893 -0.0613794 -0.484644
0.220919 0.501485 -0.0770335
0.251107 -0.483954 -0.0297101
0.464297 0.185043 -0.0173695
-0.4481 0.20871 -0.0127526
0.267433 -0.0536194 0.490235
0.251966 -0.030629 -0.546523
0.24117 0.488503 -0.0351301
0.202646 -0.497215 -0.093612
0.476032 0.271536 -0.0346934
-0.498104 0.274627 -0.0495986
0.280229 0.0128602 0.514244
0.260658 -0.036067 -0.537848
0.208018 0.523676 0.0389462
0.256461 -0.460262 -0.0238009
0.540151 0.194407 -0.0470386
-0.536644 0.202377 -0.0682732
0.214421 -0.0320721 0.529037
0.171536 -0.0610307 -0.482812
0.233783 0.418519 -0.00343873
0.220104 -0.471183 -0.0479047
0.446945 0.210445 -0.0105365
-0.530634 0.26478 -0.0984921
0.24972 0.00981217 0.472547
0.19179 -0.0267065 -0.485157
0.162064 0.50732 -0.02735
0.214914 -0.505094 -0.0270371
0.511789 0.25032 -0.0604615
-0.535409 0.252929 -0.0146008
0.217257 -0.0407782 0.481064
0.259738 0.0412176 -0.455071
0.26958 0.517157 -0.0066985
0.221079 -0.480563 -0.035687
0.542096 0.236479 -0.0256342
-0.531138 0.223168 -0.059559
0.26251 0.0549873 0.516539
0.181105 -0.000705413 -0.499019
0.24622 0.493682 0.0107277
0.250773 -0.510506 -0.00311515
0.534828 0.241891 -0.0462131
-0.47344 0.197342 0.00524467
0.266764 -0.0424405 0.48467
0.14306 -0.043582 -0.532372
0.23181 0.5535 -0.0289437
0.190038 -0.466132 -0.0520507
0.479878 0.196722 0.0199389
-0.526323 0.227182 -0.0154116
0.23829 0.0614645 0.491193
0.296926 -0.00694099 -0.512717
0.202853 0.515127 0.0330821
0.251532 -0.532145 0.0333978
0.50085 0.230097 -0.0119761
-0.488255 0.220475 0.0369086
0.229017 -0.0131159 0.548473
0.147013 0.0120919 -0.488179
0.219589 0.487352 0.0540625
0.285012 -0.50702 0.00560317
0.560108 0.226965 -0.0141297
-0.450826 0.214052 -0.0126525
0.21409 0.0540441 0.536839
0.250736 0.0512161 -0.492636
0.218531 0.482263 0.0410135
0.252618 -0.522339 0.0380025
0.483528 0.191641 0.0195557
-0.46951 0.199837 0.0699117
0.230802 0.0234977 0.453339
0.205661 0.0218551 -0.54818
0.25587 0.425426 0.046629
0.205729 -0.475105 0.0134054
0.456378 0.264094 0.0241938
-0.478972 0.238455 0.0310367
0.238541 0.037739 0.483998
0.249018 0.0302573 -0.505825
0.231729 0.558748 0.0714559
0.2323 -0.524863 0.122565
0.497125 0.241849 0.0126852
-0.541202 0.242573 0.0416211
0.213216 0.0516147 0.507977
0.234529 0.0759914 -0.474261
0.223319 0.506328 0.0653084
0.257903 -0.541725 0.0809254
0.492602 0.234378 0.0652334
-0.485225 0.240559 0.0546475
0.215165 0.0638377 0.526474
0.174578 0.103907 -0.494073
0.178963 0.545579 0.0860597
0.221312 -0.48942 0.0392273
0.535342 0.216834 0.0242908
-0.573327 0.199023 0.0600814
0.180423 0.0814657 0.526724
0.225469 0.106383 -0.493591
0.155057 0.48818 0.0887464
0.286713 -0.477799 0.0817882
0.530582 0.268371 0.0486289
-0.491645 0.235365 0.048642
0.230507 0.060388 0.552196
0.213856 0.0604134 -0.491315
0.258078 0.537127 0.0693091
0.243453 -0.49763 0.0869581
0.451804 0.239976 0.0863491
-0.511145 0.246234 0.131745
0.266372 0.0998954 0.503306
0.215858 0.105329 -0.513661
0.259522 0.54606 0.0684289
0.188893 -0.51314 0.125201
0.468795 0.184253 0.114893
-0.483142 0.205396 0.114922
0.279243 0.109912 0.469923
0.198478 0.161798 -0.532212
0.237024 0.488018 0.114372
0.223578 -0.481008 0.129741
0.498731 0.260733 0.139404
-0.496993 0.190803 0.0893165
0.242947 0.142853 0.543089
0.236729 0.0845086 -0.535656
0.23828 0.549739 0.134304
0.188588 -0.506448 0.129559
0.536801 0.21851 0.13263
-0.490878 0.220542 0.112655
0.237973 0.11528 0.451348
0.238905 0.130215 -0.532474
0.227658 0.48088 0.155027
0.217613 -0.463258 0.132471
0.497131 0.25039 0.184284
-0.50101 0.234759 0.191157
0.19232 0.154273 0.501374
0.260397 0.17083 -0.504689
0.263373 0.549089 0.183503
0.282185 -0.497804 0.124002
0.454473 0.188906 0.125472
-0.521757 0.223365 0.197426
0.252274 0.113698 0.515944
0.237615 0.147994 -0.519466
0.232323 0.532139 0.162788
0.196468 -0.504799 0.186007
0.538036 0.21935 0.189589
-0.480568 0.285197 0.192625
0.269372 0.190228 0.524953
0.217873 0.198146 -0.565542
0.226723 0.487233 0.171382
0.207843 -0.496965 0.171248
0.524991 0.226262 0.188127
-0.480482 0.208205 0.22599
0.229505 0.204894 0.45934
0.267305 0.176376 -0.526748
0.196765 0.469211 0.186611
0.207534 -0.520057 0.18589
0.517344 0.246715 0.160691
-0.456479 0.16063 0.172454
0.227297 0.210326 0.49669
0.207602 0.14557 -0.521282
0.259364 0.430815 0.165346
0.192041 -0.510375 0.217726
0.520837 0.225426 0.229814
-0.442482 0.204547 0.20129
0.228147 0.238666 0.50608
0.232238 0.186008 -0.488497
0.260911 0.475988 0.203786
0.239486 -0.496092 0.195146
0.543429 0.187169 0.201142
-0.492425 0.285714 0.142712
0.20761 0.136028 0.48699
0.240625 0.180469 -0.503607
0.212367 0.474851 0.200644
0.237318 -0.514659 0.221972
0.476914 0.255979 0.21295
-0.496526 0.228921 0.163071
0.226375 0.214711 0.460138
0.194197 0.191331 -0.463519
0.202667 0.514556 0.186868
0.228184 -0.451444 0.196251
0.458853 0.241417 0.226867
-0.522235 0.214257 0.212168
0.237992 0.21373 0.490333
0.258327 0.239462 -0.527347
0.256912 0.510063 0.225207
0.222263 -0.543788 0.239183
0.497568 0.214807 0.180056
-0.506892 0.149773 0.221709
0.235235 0.303172 0.502318
0.295747 0.194729 -0.483446
0.203363 0.448891 0.259671
0.143164 -0.505124 0.252984
0.511504 0.207236 0.288479
-0.470917 0.190279 0.202734
0.240074 0.217252 0.500836
0.19948 0.232697 -0.47383
0.229 0.524909 0.212131
0.243639 -0.486674 0.251547
0.504934 0.235337 0.237782
-0.55664 0.228719 0.238416
0.184026 0.312082 0.52823
0.22414 0.25078 -0.442225
0.2512 0.515695 0.291251
0.229362 -0.46538 0.2551
0.485817 0.237296 0.292021
-0.475243 0.240274 0.278941
0.1931 0.285047 0.50797
0.22872 0.246011 -0.484715
0.21094 0.507381 0.270202
0.234251 -0.488294 0.243606
0.536292 0.257641 0.288425
-0.481187 0.179862 0.244575
0.19331 0.279957 0.483543
0.223228 0.265015 -0.503851
0.20498 0.470967 0.259843
0.236826 -0.497073 0.309038
0.476805 0.211321 0.237844
-0.528391 0.273471 0.208938
0.229777 0.336941 0.526756
0.276446 0.267535 -0.504673
0.215806 0.486487 0.289629
0.226631 -0.52568 0.317728
0.493639 0.266698 0.294085
-0.506829 0.252524 0.312738
0.231553 0.284961 0.503145
0.262223 0.29802 -0.446933
0.271456 0.471304 0.258116
0.212685 -0.536132 0.299429
0.5332 0.235537 0.267782
-0.539784 0.199222 0.311873
0.233251 0.299903 0.477653
0.191806 0.273898 -0.47779
0.265498 0.486257 0.322323
0.285105 -0.551158 0.258403
0.490838 0.222325 0.283478
-0.475333 0.206191 0.325447
0.220779 0.336818 0.522632
0.197601 0.306857 -0.500562
0.24314 0.456746 0.335516
0.225666 -0.475133 0.288885
0.503293 0.288589 0.316846
-0.476012 0.185546 0.340891
0.252855 0.359235 0.514089
0.261327 0.347302 -0.515982
0.265753 0.50951 0.334051
0.236618 -0.502138 0.351239
0.507653 0.2549 0.325693
-0.508869 0.224997 0.267874
0.265134 0.321429 0.471795
0.242154 0.33661 -0.444726
0.244948 0.463426 0.344518
0.218774 -0.55149 0.371593
0.505745 0.241384 0.332498
-0.505502 0.224556 0.319392
0.185586 0.357298 0.492466
0.203112 0.354804 -0.469962
0.229509 0.55517 0.306417
0.189992 -0.533473 0.337583
0.515718 0.225781 0.31554
-0.449336 0.224849 0.322635
0.180809 0.353179 0.475241
0.247327 0.367953 -0.475353
0.211952 0.49165 0.349438
0.210272 -0.504765 0.401357
0.503483 0.191332 0.393514
-0.467143 0.216569 0.347649
0.2126 0.359137 0.504771
0.215138 0.39033 -0.508586
0.274215 0.447949 0.350016
0.241268 -0.466394 0.350297
0.45752 0.256542 0.375002
-0.503002 0.226276 0.398968
0.21112 0.359846 0.520101
0.247063 0.35227 -0.5227
0.250448 0.516232 0.386724
0.198703 -0.458299 0.395795
0.491446 0.257293 0.401829
-0.455844 0.206809 0.410023
0.239053 0.444654 0.529657
0.231598 0.382909 -0.483502
0.229958 0.507567 0.370967
0.204281 -0.540703 0.371361
0.494463 0.197823 0.380876
-0.500114 0.285368 0.345819
0.225294 0.44452 0.455933
0.174099 0.396708 -0.496579
0.226933 0.486406 0.394715
0.234712 -0.470976 0.458696
0.532878 0.267828 0.382714
-0.533489 0.247101 0.405591
0.229214 0.375937 0.482956
0.187369 0.371663 -0.487743
0.225087 0.487213 0.372521
0.261302 -0.460614 0.413644
0.53989 0.215213 0.390376
-0.458657 0.215408 0.414324
0.202461 0.399955 0.488861
0.253028 0.38538 -0.512097
0.234954 0.505598 0.364243
0.266053 -0.511618 0.498268
0.492715 0.213586 0.40453
-0.488475 0.235109 0.417735
0.198276 0.375357 0.545393
0.231037 0.46473 -0.529437
0.25975 0.459048 0.417501
0.253605 -0.469926 0.392002
0.490748 0.214603 0.466725
-0.50494 0.238446 0.414474
0.202043 0.422263 0.433276
0.272439 0.473132 -0.488189
0.205579 0.443249 0.472472
0.22078 -0.52598 0.436551
0.530033 0.205129 0.469897
-0.500463 0.252291 0.444757
0.225571 0.521569 0.496703
0.236319 0.471262 -0.497939
0.246226 0.512497 0.450466
0.214296 -0.491088 0.456624
0.521064 0.224223 0.459045
-0.492734 0.191708 0.42476
0.225344 0.524711 0.497473
0.211648 0.462847 -0.505878
0.288095 0.492507 0.405835
0.227024 -0.464112 0.499582
0.524455 0.262828 0.514479
-0.514255 0.230688 0.448452
0.223479 0.469174 0.472526
0.24894 0.466319 -0.461633
0.220788 0.536973 0.467437
0.21231 -0.525218 0.4649
0.459695 0.237113 0.49103
-0.471222 0.203149 0.493202
0.209597 0.447173 0.479875
0.238486 0.440185 -0.480722
0.224627 0.524515 0.44988
0.255036 -0.51915 0.470279
0.499557 0.280876 0.530272
-0.483173 0.266458 0.478952
0.239611 0.495715 0.478157
0.209466 0.507001 -0.503974
0.216404 0.479852 0.517863
0.232462 -0.560087 0.457659
0.523219 0.215422 0.555829
-0.512614 0.243944 0.439794
0.270902 0.549183 0.460195
0.223504 0.53884 -0.470475
0.175017 0.514463 0.50772
0.257572 -0.467252 0.452115
0.516442 0.181699 0.528515
-0.530687 0.21636 0.47317
0.205113 -0.485338 0.504421
0.206954 -0.547854 -0.441379
0.253099 0.527684 -0.496952
0.189644 -0.479256 -0.49074
0.507271 0.220241 -0.519345
-0.480193 0.210269 -0.496463
0.190774 -0.43633 0.438611
0.202337 -0.518173 -0.493179
0.255243 0.524707 -0.491614
0.20866 -0.509946 -0.515738
0.49418 0.260373 -0.500202
-0.437377 0.203896 -0.433999
0.187307 -0.44379 0.46065
0.258976 -0.469676 -0.475831
0.250491 0.524215 -0.522282
0.213791 -0.490805 -0.460268
0.463803 0.270248 -0.480354
-0.480557 0.255189 -0.456926
0.242361 -0.456235 0.505606
0.218256 -0.463137 -0.518094
0.248193 0.506634 -0.490192
0.271417 -0.510379 -0.446929
0.473985 0.244049 -0.461865
-0.474103 0.220582 -0.507038
0.215608 -0.508052 0.51548
0.242587 -0.420838 -0.522132
0.254547 0.481075 -0.474468
0.242097 -0.471512 -0.426231
0.537699 0.255462 -0.467461
-0.500154 0.221219 -0.398633
0.195633 -0.452456 0.472517
0.283473 -0.429017 -0.490686
0.244994 0.496808 -0.45472
0.219009 -0.583866 -0.414068
0.478994 0.20278 -0.457085
-0.501128 0.226724 -0.389896
0.260399 -0.466673 0.46801
0.231934 -0.441016 -0.551932
0.163991 0.525912 -0.422414
0.233703 -0.486719 -0.467899
0.530878 0.272602 -0.450802
-0.530829 0.196378 -0.44215
0.266703 -0.445647 0.504043
0.20427 -0.433433 -0.557614
0.257057 0.454833 -0.443439
0.244358 -0.506611 -0.401689
0.489512 0.224298 -0.403028
-0.463221 0.291379 -0.433257
0.248105 -0.472334 0.471749
0.234917 -0.45703 -0.459506
0.184583 0.515859 -0.413626
0.260808 -0.52409 -0.478708
0.517409 0.238341 -0.455329
-0.477051 0.196662 -0.412531
0.225765 -0.443533 0.440312
0.276339 -0.391826 -0.508222
0.23992 0.509544 -0.435762
0.230246 -0.478291 -0.40963
0.47342 0.206997 -0.405843
-0.493065 0.220816 -0.437737
0.232001 -0.379681 0.549996
0.206885 -0.371882 -0.455849
0.202594 0.498693 -0.429179
0.202294 -0.466052 -0.445118
0.493692 0.222962 -0.374926
-0.497721 0.150051 -0.424257
0.286286 -0.388504 0.474041
0.221041 -0.35203 -0.505148
0.273138 0.550399 -0.413488
0.261635 -0.500385 -0.420947
0.463069 0.228236 -0.38506
-0.470075 0.206934 -0.371385
0.275023 -0.392627 0.483219
0.191091 -0.435902 -0.52005
0.224469 0.501953 -0.363114
0.173583 -0.486055 -0.409714
0.530114 0.238971 -0.416763
-0.514715 0.177122 -0.421575
0.258955 -0.366807 0.516111
0.214972 -0.361779 -0.50845
0.286263 0.444572 -0.41532
0.271434 -0.477218 -0.404179
0.4796 0.228501 -0.367053
-0.500807 0.255951 -0.372703
0.234094 -0.361433 0.500276
0.221628 -0.362091 -0.434706
0.174224 0.46574 -0.350922
0.257563 -0.48488 -0.376897
0.536396 0.233696 -0.404462
-0.470773 0.184369 -0.361302
0.244202 -0.389449 0.512554
0.253803 -0.371038 -0.535369
0.25405 0.462312 -0.399499
0.218194 -0.5391 -0.347583
0.549535 0.206506 -0.36184
-0.49332 0.19323 -0.364265
0.23622 -0.375429 0.466555
0.181876 -0.340258 -0.550748
0.256903 0.546655 -0.325329
0.239742 -0.545705 -0.323558
0.4924 0.242876 -0.330434
-0.479986 0.283074 -0.305128
0.230923 -0.307353 0.47215
0.1997 -0.334554 -0.46977
0.205876 0.555957 -0.294775
0.188895 -0.468714 -0.352293
0.46767 0.199084 -0.370424
-0.51053 0.232847 -0.30977
0.218388 -0.326263 0.515352
0.236382 -0.339868 -0.500915
0.224644 0.433522 -0.297842
0.257262 -0.438274 -0.334353
0.480661 0.238148 -0.34861
-0.505891 0.226938 -0.303703
0.199454 -0.301955 0.465035
0.233154 -0.335663 -0.474293
0.280444 0.472128 -0.322416
0.234518 -0.426789 -0.281526
0.500658 0.233791 -0.290119
-0.477551 0.24032 -0.287305
0.24324 -0.26732 0.476037
0.180845 -0.267273 -0.502289
0.216862 0.497626 -0.349914
0.262611 -0.531482 -0.260634
0.550268 0.232934 -0.322637
-0.488459 0.244426 -0.320796
0.254673 -0.265534 0.512412
0.215461 -0.31619 -0.490557
0.186431 0.563549 -0.284648
0.26315 -0.498369 -0.330726
0.461315 0.237465 -0.246248
-0.542518 0.194728 -0.281787
0.214989 -0.307991 0.49686
0.267823 -0.320159 -0.47201
0.223992 0.468431 -0.259084
0.215306 -0.526667 -0.292986
0.527958 0.266042 -0.308043
-0.522671 0.294635 -0.284965
0.258775 -0.318816 0.521489
0.243647 -0.278952 -0.448466
0.226066 0.515016 -0.293679
0.203835 -0.479626 -0.230782
0.477025 0.215519 -0.251928
-0.406995 0.243984 -0.208284
0.249056 -0.28997 0.466142
0.234534 -0.204141 -0.539795
0.248621 0.5126 -0.248435
0.21421 -0.487242 -0.21809
0.467286 0.238033 -0.270101
-0.490947 0.193777 -0.188598
0.223976 -0.206281 0.492844
0.31909 -0.223956 -0.48011
0.196249 0.536014 -0.255633
0.264878 -0.495571 -0.249158
0.573607 0.172012 -0.259003
-0.53723 0.259211 -0.265113
0.242114 -0.230166 0.506044
0.272813 -0.266381 -0.497215
0.234917 0.505714 -0.238168
0.240879 -0.466689 -0.231219
0.501861 0.199864 -0.285141
-0.453291 0.229482 -0.242621
0.216508 -0.218165 0.537292
0.210076 -0.231993 -0.516549
0.231644 0.518109 -0.219677
0.250448 -0.484496 -0.253639
0.514588 0.204979 -0.213307
-0.512072 0.219177 -0.208902
0.280385 -0.23213 0.516872
0.277021 -0.204469 -0.506708
0.246076 0.543955 -0.238846
0.266927 -0.505039 -0.232041
0.475216 0.239459 -0.203124
-0.498657 0.248195 -0.135652
0.236038 -0.232039 0.474345
0.288158 -0.247125 -0.490786
0.255147 0.520846 -0.199582
0.245474 -0.476448 -0.233854
0.509892 0.216889 -0.237752
-0.508176 0.242061 -0.231748
0.226136 -0.185544 0.521479
0.276144 -0.206271 -0.507718
0.217755 0.532183 -0.145478
0.215593 -0.51297 -0.250397
0.493584 0.287616 -0.255206
-0.492085 0.256076 -0.183748
0.242594 -0.20589 0.48713
0.26078 -0.226346 -0.511134
0.259494 0.474433 -0.235962
0.195019 -0.472771 -0.191002
0.528086 0.231935 -0.251029
-0.525756 0.227225 -0.176806
0.260371 -0.19123 0.496739
0.247776 -0.145909 -0.489799
0.220338 0.476113 -0.196533
0.297384 -0.509628 -0.223411
0.512322 0.211154 -0.204111
-0.52917 0.218669 -0.128397
0.218377 -0.158176 0.449098
0.215156 -0.189505 -0.511335
0.208568 0.557046 -0.192718
0.249132 -0.453805 -0.160283
0.511866 0.211315 -0.224456
-0.519953 0.257353 -0.160598
0.187195 -0.155008 0.489112
0.187846 -0.145169 -0.503912
0.250217 0.507513 -0.185889
0.223587 -0.485574 -0.170477
0.517211 0.22159 -0.184013
-0.471738 0.226334 -0.144937
0.213943 -0.125777 0.459254
0.222426 -0.178267 -0.515976
0.26499 0.533308 -0.196495
0.224087 -0.494218 -0.147752
0.488804 0.259953 -0.122874
-0.521121 0.224122 -0.112231
0.210023 -0.123557 0.550669
0.245785 -0.0984318 -0.487182
0.2771 0.53506 -0.176585
0.295262 -0.476042 -0.160489
0.504238 0.233462 -0.115095
-0.541464 0.24587 -0.130053
0.264145 -0.0889196 0.518085
0.230285 -0.099178 -0.490013
0.222922 0.481268 -0.148309
0.232218 -0.477638 -0.094933
0.492616 0.266301 -0.13124
-0.482525 0.265849 -0.147383
0.275458 -0.105971 0.506512
0.277379 -0.128944 -0.500572
0.206324 0.525461 -0.103033
0.202808 -0.490076 -0.127944
0.466522 0.207308 -0.116453
-0.501441 0.206354 -0.130449
0.226679 -0.132987 0.452808
0.250274 -0.124014 -0.547302
0.178578 0.441823 -0.153926
