ply
format ascii 1.0
comment sampling resolution: 0.01
comment noise level: 0.02
comment Created by Open3D
element vertex 1648
property double x
property double y
property double z
end_header
0.0601217 -0.461803 0.5242
0.0575295 -0.502277 -0.528437
0.0552992 0.490076 -0.447678
0.0527849 -0.512628 -0.483752
0.495966 0.0587632 -0.463868
-0.498425 0.0426552 -0.479903
0.0343092 -0.465871 0.505749
0.0503247 -0.422649 -0.510585
0.065695 0.512417 -0.447097
0.0297525 -0.517746 -0.455624
0.507011 0.00530696 -0.428836
-0.489758 0.0527859 -0.417801
0.0554378 -0.464171 0.474927
0.0553532 -0.411843 -0.522875
0.0582886 0.538238 -0.491226
0.0391456 -0.480788 -0.429176
0.49954 0.0414168 -0.461021
-0.512098 0.0252181 -0.411159
0.0359244 -0.415997 0.481251
0.0141278 -0.406646 -0.490979
0.0377285 0.526416 -0.431377
0.0429573 -0.481357 -0.435634
0.514358 0.0290234 -0.424515
-0.514614 0.0679427 -0.429215
0.0367116 -0.443208 0.485947
0.0497824 -0.417097 -0.46733
0.0527719 0.497028 -0.448697
0.0469286 -0.490694 -0.412341
0.522493 0.052772 -0.398146
-0.495616 0.0596126 -0.402802
0.0519303 -0.418887 0.508176
0.0417086 -0.42878 -0.496457
0.0348694 0.501917 -0.414008
0.0678281 -0.543923 -0.426183
0.514749 0.0392943 -0.410839
-0.49218 0.0505632 -0.401191
0.0326187 -0.410218 0.507701
0.0516607 -0.435502 -0.476422
-0.0224344 0.525116 -0.392234
0.0532891 -0.529254 -0.365377
0.500184 0.0519044 -0.415384
-0.503643 0.0820016 -0.402318
0.0593627 -0.372908 0.518805
0.00904068 -0.364982 -0.472633
0.0470705 0.507304 -0.389892
0.00272054 -0.466094 -0.404268
0.503433 0.0533811 -0.384097
-0.489463 0.0598576 -0.400296
0.0463053 -0.380686 0.471837
0.0558654 -0.378061 -0.522124
0.0215817 0.53529 -0.409269
0.0697841 -0.534638 -0.338372
0.520775 0.0192134 -0.415346
-0.523076 0.0304295 -0.368746
0.0435236 -0.334236 0.519209
0.0322098 -0.374324 -0.481952
0.0511618 0.467395 -0.400128
0.0267254 -0.480026 -0.355434
0.510772 0.0335792 -0.376801
-0.525199 0.0396568 -0.371983
0.0156121 -0.363063 0.463337
0.0405928 -0.367578 -0.476379
0.0682409 0.468244 -0.359257
0.00689087 -0.485745 -0.363094
0.503761 0.000558615 -0.380225
-0.469682 0.0180067 -0.382458
0.0617714 -0.317279 0.482826
0.034478 -0.341282 -0.480513
0.0831391 0.474268 -0.354221
0.0441716 -0.487432 -0.3769
0.53944 0.0255073 -0.350807
-0.485925 0.0638694 -0.380351
0.0212035 -0.331891 0.513612
0.0552011 -0.362113 -0.503804
0.060223 0.519179 -0.341617
0.056412 -0.506797 -0.352012
0.518488 0.0368735 -0.327809
-0.528982 0.0391836 -0.366557
0.0461486 -0.326465 0.498483
0.104409 -0.331619 -0.47457
0.0325363 0.509264 -0.308583
0.0236391 -0.510275 -0.359336
0.516669 0.0669315 -0.312322
-0.529561 0.0388288 -0.31847
0.0368564 -0.326041 0.513539
0.0303088 -0.292608 -0.50068
0.0622411 0.4885 -0.355539
0.0543917 -0.537435 -0.309057
0.496768 0.0479716 -0.300845
-0.508907 0.0565238 -0.314335
0.0398346 -0.327648 0.499256
0.0519981 -0.314479 -0.521616
0.0286293 0.521893 -0.317188
0.0204373 -0.520046 -0.296747
0.502762 0.0685863 -0.299324
-0.534914 0.0336706 -0.32701
-0.0019919 -0.290155 0.524508
0.0419387 -0.306212 -0.502208
0.0320588 0.526964 -0.321125
0.0667248 -0.517155 -0.30328
0.494035 0.0468679 -0.297449
-0.494024 0.04985 -0.268568
0.0530714 -0.271414 0.503361
0.0430784 -0.30643 -0.522178
0.060759 0.512172 -0.304445
0.0288253 -0.505218 -0.281827
0.479842 0.00453705 -0.291146
-0.499834 0.0244645 -0.314428
-0.00792444 -0.258167 0.538804
0.0713606 -0.334363 -0.502096
0.0830591 0.50954 -0.28923
0.00274443 -0.496758 -0.294673
0.536484 0.0494527 -0.302112
-0.53649 0.0155268 -0.269706
0.0732476 -0.242842 0.477712
0.0399507 -0.269745 -0.481139
0.0600859 0.454781 -0.272093
0.0270847 -0.479784 -0.27618
0.511096 0.0508166 -0.238076
-0.546644 0.0117523 -0.314887
0.0184614 -0.259306 0.478025
0.0648302 -0.28673 -0.499803
0.00567428 0.517238 -0.23965
0.0599227 -0.499718 -0.242536
0.494667 0.0316021 -0.244231
-0.489073 0.0524247 -0.258932
0.0571639 -0.245891 0.456917
0.0420036 -0.262336 -0.50542
0.0422446 0.528854 -0.240952
0.0506853 -0.524006 -0.240451
0.488742 0.0362612 -0.23891
-0.476508 0.0318493 -0.226764
0.0323673 -0.204863 0.531176
0.0628841 -0.218281 -0.503176
0.0579503 0.480809 -0.274897
0.00731889 -0.510967 -0.255973
0.512901 0.0546959 -0.276334
-0.50967 0.0401288 -0.260811
0.0404692 -0.257804 0.512619
0.0424325 -0.213125 -0.543575
0.0452225 0.502932 -0.201463
0.0553863 -0.511879 -0.257411
0.494714 0.0467435 -0.238449
-0.500857 0.0889325 -0.215338
0.0118592 -0.20874 0.490545
0.00863258 -0.20972 -0.477207
0.0270638 0.507121 -0.229333
0.0819776 -0.491079 -0.210298
0.486521 0.0841695 -0.210338
-0.496561 0.0439729 -0.208772
0.0218868 -0.216292 0.488016
0.0529171 -0.207984 -0.50066
0.0414518 0.484135 -0.227216
0.0247282 -0.526316 -0.211781
0.48811 0.0197377 -0.185025
-0.495813 0.019221 -0.217361
0.0395749 -0.189305 0.488825
0.0586943 -0.146895 -0.474947
0.0731469 0.523915 -0.190317
0.0429142 -0.523752 -0.225672
0.500442 0.0257438 -0.151154
-0.500421 0.0712867 -0.144814
0.0623302 -0.187371 0.474156
0.0256721 -0.205255 -0.48204
0.0632592 0.479406 -0.18817
0.00886471 -0.488912 -0.221399
0.495469 0.07989 -0.17603
-0.535959 0.051385 -0.201352
0.0435795 -0.185345 0.508689
0.0375337 -0.163508 -0.530236
0.00535048 0.504636 -0.164716
0.0586505 -0.459562 -0.199509
0.531013 0.0307615 -0.179075
-0.474858 0.0630704 -0.193377
0.0600303 -0.158991 0.452513
0.0601217 -0.182776 -0.50701
0.0710924 0.497741 -0.179802
0.00919259 -0.522965 -0.164482
0.514645 0.0653906 -0.156799
-0.485321 0.0132049 -0.149011
0.0668622 -0.172522 0.503211
0.0721418 -0.160334 -0.485325
0.050695 0.485298 -0.152561
0.0375762 -0.516746 -0.150986
0.500263 0.0522262 -0.177693
-0.513675 0.0530646 -0.113023
0.0215897 -0.183611 0.511324
0.0306419 -0.144735 -0.531497
0.0598971 0.514822 -0.139046
0.0235503 -0.48789 -0.132036
0.477342 0.0413312 -0.133636
-0.493502 0.0619075 -0.15303
0.0346073 -0.13604 0.478799
0.0402685 -0.196368 -0.491013
0.0790975 0.481718 -0.153821
0.0269467 -0.499606 -0.0985727
0.48428 0.0655247 -0.185891
-0.486268 0.0571939 -0.0971673
0.0482563 -0.143618 0.486541
0.0583403 -0.142312 -0.512453
0.0329793 0.511083 -0.121621
0.049945 -0.487276 -0.147555
0.520068 0.0109012 -0.116548
-0.532899 0.0460395 -0.134668
0.0550577 -0.111319 0.480708
0.0455935 -0.0699787 -0.49905
0.0609653 0.493272 -0.113972
0.0316386 -0.491854 -0.144006
0.471775 0.0225695 -0.113993
-0.472372 0.0581961 -0.154577
0.0606206 -0.0893306 0.518543
0.0595282 -0.115536 -0.498945
0.0408107 0.489523 -0.114719
0.0310445 -0.532515 -0.0904148
0.504064 0.0305005 -0.0773717
-0.486163 0.0543555 -0.0925723
0.0556129 -0.135982 0.540804
-0.00451704 -0.100985 -0.517506
0.0424604 0.522073 -0.0791035
0.0578743 -0.519253 -0.0888782
0.503288 0.0496836 -0.0787403
-0.495564 0.0257657 -0.0845318
0.0635983 -0.0779704 0.480516
0.0444506 -0.0778409 -0.484685
0.0395086 0.516205 -0.086548
0.0735021 -0.488648 -0.128188
0.511887 0.0361201 -0.0539214
-0.520766 0.0331188 -0.127487
0.0519173 -0.0773229 0.509571
0.0260083 -0.059076 -0.509446
0.033083 0.497872 -0.0650239
0.0285758 -0.483248 -0.0995456
0.499962 0.0402443 -0.111889
-0.516015 0.0376989 -0.0438501
0.0428734 -0.0532232 0.551123
0.0719367 -0.0805712 -0.498539
0.0537833 0.496315 -0.0788681
0.0441228 -0.498026 -0.0954363
0.482342 0.0649123 -0.0657998
-0.468544 0.0332284 -0.0508584
0.0854155 -0.0517544 0.522143
0.0564717 -0.00763177 -0.499835
0.0339819 0.486292 -0.0999437
0.0307151 -0.534491 -0.0640892
0.505045 0.0499293 -0.0515594
-0.491232 0.0840521 -0.0970354
0.0349543 -0.065837 0.517949
0.0442341 -0.0187007 -0.51882
0.062821 0.4826 -0.0704772
0.0418205 -0.482564 -0.0869552
0.536934 0.0553768 -0.0338804
-0.480059 0.0875614 -0.00830202
0.0357172 -0.0270818 0.47482
0.0432633 -0.00313964 -0.520872
0.0570568 0.52583 -2.80945e-05
0.0551198 -0.490299 -0.0402358
0.527596 0.057196 -0.0888765
-0.484949 0.0475157 -0.0113604
0.00927415 -0.0629373 0.489825
0.0503334 -0.0096097 -0.530016
0.0544391 0.492653 -0.0163448
0.0205216 -0.521983 -0.0113872
0.487724 0.061026 -0.0317663
-0.493584 0.0541132 -0.0345422
0.0885969 0.0209081 0.508458
0.064008 -0.0326869 -0.490673
0.0165237 0.54187 -0.0067288
0.082966 -0.500866 -0.0276914
0.523375 0.068711 -0.0273122
-0.505441 0.0618036 -0.0450255
0.0566381 0.0120989 0.509515
0.0535015 -0.0673512 -0.528165
0.0555643 0.534449 0.0266377
0.0364407 -0.473367 -0.0013202
0.520111 0.0463323 -0.0393965
-0.526048 0.0472528 -0.0289289
0.0374162 0.031983 0.477296
0.0136796 0.0524856 -0.531269
0.0171848 0.494141 -0.0143005
0.0733912 -0.488532 0.0159749
0.492915 0.0421034 0.0232911
-0.491081 0.0695805 -0.0155706
0.0692892 0.0315982 0.485008
0.0208768 0.0416038 -0.518663
0.0365089 0.476566 0.0478538
0.0572781 -0.541768 0.0171954
0.558774 0.0165664 -0.0166224
-0.464752 0.0878575 0.0197344
0.034623 -0.000369006 0.464274
0.0642573 0.00215611 -0.522466
0.0433844 0.490068 0.0111193
0.0644731 -0.519003 0.0173916
0.522206 0.03854 0.0228314
-0.535781 0.0411243 0.0421184
-0.00486149 0.025495 0.472105
0.0633581 0.0132578 -0.508876
0.0293418 0.525237 0.0421017
0.0821232 -0.492444 0.0345375
0.533136 0.0436542 0.0735282
-0.509357 0.0875151 0.0467869
0.0597497 0.0642716 0.482173
0.0316811 0.0679493 -0.505788
0.0711091 0.501058 0.0115483
0.0512114 -0.483216 0.044037
0.483485 0.0628792 0.045907
-0.517879 0.0659894 0.0591904
0.027057 0.0366383 0.480758
0.0361324 0.041279 -0.492177
0.0845474 0.518978 0.0817639
0.0550066 -0.475356 0.064685
0.515822 0.0485434 0.0840197
-0.520779 0.0650383 0.0580673
0.0338851 0.0784996 0.502826
0.0217925 0.0427589 -0.513661
0.0196223 0.490003 0.0599041
0.0693833 -0.516364 0.025725
0.459446 0.0653332 0.051287
-0.509043 0.0248747 0.0860015
0.0618766 0.0994649 0.482285
0.0420043 0.0952724 -0.489568
0.0459807 0.502778 0.0552787
0.0473972 -0.481785 0.0948754
0.494435 0.0552692 0.0867743
-0.502075 0.0897244 0.0713434
0.0652677 0.0758638 0.498183
0.0352227 0.0695799 -0.527181
0.0651501 0.497874 0.0852132
0.0555337 -0.497092 0.0568322
0.53048 0.031076 0.0766683
-0.524123 0.0586044 0.0784437
0.086467 0.0939956 0.515235
0.0885088 0.1084 -0.492616
0.0257311 0.525989 0.0871834
0.0699876 -0.485855 0.102285
0.482281 0.0443576 0.0737149
-0.476944 0.030177 0.0899151
0.0641553 0.104852 0.526808
0.00892834 0.123101 -0.513301
0.0605425 0.473115 0.155267
0.0538649 -0.495536 0.104721
0.482106 0.0552594 0.089757
-0.51429 0.0895647 0.0671364
0.0668192 0.129358 0.496193
0.0426802 0.0866502 -0.467627
0.0545269 0.498829 0.0950323
0.0153051 -0.48434 0.145205
0.495254 0.0537773 0.120062
-0.496859 0.0361424 0.102965
0.0541172 0.083105 0.50602
0.0381404 0.11374 -0.514883
0.061311 0.524616 0.130032
0.0367464 -0.493948 0.135932
0.481182 0.056844 0.152234
-0.460702 0.0501964 0.143347
0.0647383 0.135162 0.459671
0.0417333 0.116776 -0.515302
0.0532289 0.503328 0.137869
0.0905715 -0.483139 0.15593
0.452273 0.0154617 0.130374
-0.503291 0.00337653 0.167158
0.0497408 0.156073 0.536243
0.0418184 0.127227 -0.495381
0.0817369 0.515857 0.138842
0.0331015 -0.492241 0.177227
0.498748 0.0565755 0.148885
-0.523748 0.0779778 0.131847
0.0622878 0.139852 0.501755
0.0866385 0.136629 -0.48701
0.0465672 0.508981 0.141426
0.0489375 -0.510367 0.101941
0.469432 0.0593479 0.180771
-0.517364 0.0290581 0.175442
0.0419524 0.177351 0.490464
0.0540141 0.181982 -0.484173
0.0355949 0.517087 0.175571
0.0472601 -0.515822 0.152774
0.488248 0.0724053 0.154936
-0.475116 0.0305169 0.165933
0.043525 0.17509 0.482574
0.0633218 0.185591 -0.478709
0.0591291 0.497474 0.156159
-0.00552896 -0.494913 0.150179
0.475654 0.0758275 0.208256
-0.476096 0.0358615 0.174116
0.0221583 0.197797 0.481843
0.0405573 0.186254 -0.493203
0.0674007 0.477677 0.194498
0.0444954 -0.485094 0.225583
0.547411 -0.00161831 0.186692
-0.53583 0.0705265 0.177639
0.0511714 0.213383 0.506239
0.0396944 0.187558 -0.50934
0.0822097 0.465945 0.190074
0.0143981 -0.497053 0.183481
0.493017 0.0186769 0.202188
-0.471637 0.0769779 0.183507
0.0639421 0.196655 0.441779
0.0369435 0.205972 -0.518053
0.0666665 0.501969 0.217432
0.00810187 -0.490497 0.213025
0.519786 0.0437699 0.181827
-0.518776 0.0690348 0.195672
0.0554684 0.186307 0.513909
0.029854 0.20144 -0.501991
0.0522417 0.490258 0.237818
0.0259699 -0.509713 0.211548
0.491139 0.059888 0.22353
-0.48967 -0.00193918 0.252201
0.0270992 0.238094 0.503854
0.0170461 0.225926 -0.515752
0.0275552 0.51303 0.215737
0.0372031 -0.429082 0.231434
0.507804 0.053926 0.19794
-0.488844 0.0344095 0.211392
0.0417775 0.216408 0.513372
0.046564 0.271063 -0.453716
0.0381729 0.498201 0.251792
0.0455379 -0.459646 0.276505
0.530571 0.0116524 0.233651
-0.489951 0.0401071 0.214338
0.0202065 0.269832 0.480187
0.0289166 0.258846 -0.501501
0.0689969 0.499255 0.271578
0.0265802 -0.518607 0.239901
0.463499 0.019357 0.243455
-0.479846 0.0439177 0.280726
0.0155144 0.255223 0.48869
0.0463584 0.263847 -0.511307
0.0885947 0.487523 0.288508
0.0628858 -0.538993 0.289117
0.485231 0.0322436 0.268075
-0.493669 0.0226458 0.304438
0.0821445 0.260073 0.465085
0.0104175 0.275387 -0.48817
0.00675707 0.530733 0.240117
0.047855 -0.518959 0.253691
0.520192 0.0427307 0.309921
-0.507269 0.0569817 0.256476
0.0277456 0.255248 0.526142
0.0464303 0.269501 -0.508441
0.0261095 0.508197 0.279346
0.0168085 -0.479795 0.268906
0.476595 0.0167467 0.316398
-0.500159 0.0426377 0.271177
0.0922246 0.271698 0.490074
0.0265456 0.293209 -0.489182
0.0346891 0.483107 0.255905
0.04103 -0.510273 0.281321
0.479107 0.0629802 0.268998
-0.521318 0.0470368 0.305547
0.0288469 0.314582 0.504893
0.0528279 0.275237 -0.507376
0.0702721 0.493797 0.283338
0.0283907 -0.498263 0.295817
0.489718 0.0614602 0.286937
-0.521988 0.0575154 0.310126
0.0300826 0.302247 0.518019
0.0166337 0.28771 -0.512809
0.0372741 0.508534 0.272818
0.0236362 -0.491104 0.306728
0.500162 0.0360017 0.329403
-0.519207 0.0321667 0.308582
0.105482 0.282568 0.475206
0.0560923 0.345187 -0.504866
0.0803085 0.503428 0.349484
0.0372247 -0.499952 0.333908
0.487061 0.0464063 0.339101
-0.495191 0.0737863 0.324454
0.0637308 0.339461 0.503886
0.029872 0.32539 -0.499699
0.056391 0.466302 0.325724
0.0549033 -0.506274 0.310831
0.541024 0.0532597 0.332062
-0.487696 0.0436165 0.341134
0.0592827 0.350301 0.509752
0.0274645 0.297765 -0.547358
0.0796072 0.490401 0.351096
0.0392012 -0.502046 0.38719
0.474994 0.0486579 0.31562
-0.514097 0.0497066 0.317965
0.0188588 0.318191 0.463698
0.0866388 0.349693 -0.51711
0.0276095 0.499748 0.367186
0.0371348 -0.471644 0.369959
0.4905 -0.00299054 0.368935
-0.513664 0.0298504 0.364794
0.0561044 0.388999 0.491653
0.0425369 0.377227 -0.482446
0.034187 0.48689 0.385383
0.0185708 -0.522194 0.355757
0.469296 0.0241014 0.390607
-0.493051 0.032182 0.36098
0.058888 0.390796 0.494948
0.0357505 0.378947 -0.521472
0.0521849 0.486591 0.382866
0.0277851 -0.486859 0.398612
0.472802 0.0393317 0.361796
-0.471619 0.0494448 0.34638
0.00266341 0.417339 0.493985
0.0383408 0.373936 -0.481203
-0.00267951 0.510464 0.372814
0.0657232 -0.478691 0.388267
0.486791 0.00479845 0.408959
-0.498501 0.0546347 0.386083
0.0490349 0.391327 0.508563
0.0177575 0.362856 -0.491831
0.0265479 0.518357 0.351878
0.0261776 -0.488908 0.37653
0.503428 0.0509405 0.404936
-0.511414 0.00216097 0.38706
0.0178893 0.448611 0.552929
0.0325169 0.395705 -0.500022
0.0327454 0.495575 0.41665
0.0928254 -0.480161 0.419775
0.505062 0.0475239 0.402081
-0.537963 0.0787328 0.405951
0.0106713 0.404319 0.50179
0.0891933 0.415186 -0.486812
0.0310227 0.469972 0.394541
0.0263749 -0.496432 0.397512
0.529399 0.0596541 0.402486
-0.46953 0.00176814 0.384429
0.0462243 0.407399 0.484185
0.0657024 0.42614 -0.463586
0.0737336 0.510843 0.435947
0.00169281 -0.472771 0.439132
0.509125 0.0534093 0.413696
-0.506415 0.0324094 0.435232
0.0325893 0.415753 0.483776
0.0578799 0.458149 -0.478757
0.0727625 0.468874 0.44269
0.0577632 -0.495661 0.393278
0.522208 0.0418793 0.427483
-0.50456 0.0483394 0.461453
0.0450195 0.441771 0.489784
0.0395577 0.433648 -0.516097
0.0502433 0.494461 0.434141
-0.0134812 -0.512027 0.411464
0.516852 0.0260628 0.437112
-0.475719 0.0196027 0.460995
-0.0200631 0.44448 0.466135
0.039183 0.431696 -0.466822
0.0594029 0.529664 0.418102
0.0621341 -0.504112 0.462618
0.492479 0.0227865 0.432978
-0.533329 0.0688256 0.419893
0.054132 0.449393 0.488875
0.027298 0.45477 -0.520712
0.0722114 0.513416 0.473708
0.0150246 -0.5064 0.483365
0.513496 0.0582671 0.438943
-0.522918 0.0432649 0.450411
0.0241653 0.47407 0.519823
0.0354779 0.4833 -0.512193
0.0324425 0.492465 0.499239
0.0436735 -0.485093 0.445566
0.47783 0.0540934 0.483861
-0.515828 0.0562758 0.457972
0.0577205 0.507014 0.486312
0.0859539 0.480904 -0.488682
0.0733025 0.484299 0.484993
0.0406838 -0.467806 0.47728
0.488203 0.0318047 0.479061
-0.502587 0.0418251 0.462029
0.0447612 0.490664 0.499735
0.0657587 0.487055 -0.493382
0.0444468 0.533846 0.453484
0.0570907 -0.504241 0.479714
0.500803 0.0311365 0.497209
-0.50931 0.0229612 0.510766
0.00859264 0.507706 0.50242
0.0391632 0.534218 -0.502788
0.00927307 0.536739 0.499383
0.0555276 -0.506529 0.486817
0.532328 0.0599555 0.528011
-0.488712 0.0487026 0.502243
0.0466302 -0.507566 0.490709
0.0393984 -0.494123 -0.501305
0.0457146 0.505812 -0.478456
0.0623012 -0.493562 -0.502704
0.502302 0.0545262 -0.480225
-0.500891 0.0803216 -0.495595
0.0652069 -0.512927 0.496219
0.065548 -0.478357 -0.487736
0.0315541 0.488609 -0.504271
0.0651189 -0.508438 -0.502723
0.504059 0.0763873 -0.484994
-0.487101 0.0737292 -0.52043
0.0620492 -0.466599 0.530445
0.0166973 -0.469148 -0.514378
0.0222555 0.465752 -0.479956
0.0733047 -0.489812 -0.48676
0.469488 0.0353686 -0.466474
-0.514128 0.0635308 -0.490291
0.0345709 -0.455812 0.487534
0.0466132 -0.457462 -0.52957
0.0682826 0.508623 -0.456501
0.0538771 -0.515502 -0.489251
0.490465 0.0596182 -0.474342
-0.547064 0.036557 -0.446532
0.0759846 -0.460912 0.46984
0.0347041 -0.493169 -0.490239
0.1047 0.486256 -0.473598
0.0540314 -0.512745 -0.45899
0.531162 0.0308858 -0.456475
-0.500425 0.0578467 -0.438858
0.0761621 -0.454748 0.502301
0.041737 -0.456534 -0.495756
0.0359483 0.532152 -0.435736
0.0576709 -0.495291 -0.430731
0.483549 0.0635071 -0.428454
-0.499317 0.0765549 -0.457752
0.0388696 -0.410505 0.505999
0.0452805 -0.441589 -0.510358
0.0429085 0.504437 -0.468979
0.0631576 -0.478806 -0.473743
0.492907 0.0459899 -0.42452
-0.47348 0.0233167 -0.41241
0.0408983 -0.4291 0.519538
0.041517 -0.432364 -0.545501
0.0100869 0.521285 -0.419441
0.0375754 -0.476572 -0.443301
0.488724 0.0645192 -0.373252
-0.493574 0.0286843 -0.430984
0.0568927 -0.39826 0.49025
0.0741094 -0.394999 -0.511981
0.0392634 0.495832 -0.457971
0.0466949 -0.522157 -0.433312
0.491802 0.0799141 -0.441311
-0.518157 0.0881727 -0.405486
0.0529465 -0.421368 0.503613
0.0358599 -0.420901 -0.514495
0.0863877 0.488646 -0.407113
0.0686804 -0.501754 -0.420073
0.468778 0.0473864 -0.404368
-0.518102 0.0714651 -0.419607
0.0642225 -0.398297 0.470667
0.0401506 -0.39036 -0.480422
0.0803474 0.499419 -0.43503
0.0350879 -0.489753 -0.406808
0.486042 0.0419218 -0.397406
-0.509874 0.0658566 -0.3986
0.0705898 -0.367223 0.50378
0.0312307 -0.357446 -0.517891
0.0191527 0.496998 -0.39181
0.0398854 -0.540657 -0.394786
0.495952 0.0569951 -0.376878
-0.520945 0.0735846 -0.409446
0.0659047 -0.368668 0.50399
0.0527548 -0.37446 -0.497546
0.0290003 0.503148 -0.373769
0.0405799 -0.556643 -0.378269
0.498911 0.0703845 -0.377293
-0.519164 0.0759597 -0.384968
0.0806206 -0.366541 0.520292
0.0769512 -0.367623 -0.498299
0.0714402 0.49716 -0.37238
0.0464336 -0.496238 -0.397283
0.473206 0.105456 -0.399373
-0.482551 0.0803728 -0.362851
0.0374742 -0.372331 0.491828
0.0881681 -0.358244 -0.460264
0.0397866 0.491411 -0.37694
0.0612459 -0.49536 -0.369548
0.496295 0.0862825 -0.395238
-0.501376 0.0651945 -0.366236
0.0558877 -0.348758 0.484577
0.0597302 -0.340916 -0.495855
0.0453544 0.489973 -0.349434
0.00130522 -0.471078 -0.34625
0.515398 0.0549577 -0.327073
-0.495813 0.057294 -0.369404
0.0384111 -0.314853 0.502171
0.0567146 -0.327718 -0.50519
0.0915683 0.478586 -0.317524
0.0794376 -0.496398 -0.364134
0.479498 0.0413905 -0.320604
-0.480794 0.0514517 -0.34257
0.0464921 -0.347018 0.501613
0.0613675 -0.342328 -0.513968
0.0440838 0.484576 -0.328477
0.0700334 -0.515265 -0.314543
0.474595 0.0485819 -0.325617
-0.494213 0.0470208 -0.314039
0.0615015 -0.317201 0.474558
0.0604349 -0.322958 -0.499638
0.0597052 0.477749 -0.313681
0.0665632 -0.492096 -0.330192
0.540403 0.0451441 -0.293953
-0.487413 0.0602902 -0.332488
0.0317883 -0.354146 0.478932
0.0542987 -0.329043 -0.509318
0.0548606 0.487383 -0.291712
0.051458 -0.532291 -0.31063
0.514976 0.0749284 -0.31201
-0.49875 0.0380113 -0.325984
0.0673375 -0.244519 0.511193
0.0623739 -0.303499 -0.496642
0.0522996 0.515751 -0.298661
0.016815 -0.473237 -0.299119
0.49857 0.0644814 -0.295633
-0.547951 0.0865494 -0.318983
0.0505539 -0.300304 0.525089
0.0870677 -0.267757 -0.493851
0.0566186 0.478254 -0.27141
0.0552751 -0.498933 -0.287283
0.516461 0.0462887 -0.285401
-0.504268 0.0501797 -0.291869
0.0407725 -0.243337 0.491375
0.0723235 -0.275572 -0.525314
0.0680852 0.513979 -0.311974
0.09293 -0.529038 -0.271069
0.50503 0.0638166 -0.287204
-0.478224 0.0539093 -0.263188
0.0583641 -0.263839 0.529009
0.0837539 -0.271801 -0.480743
0.0475725 0.449887 -0.242089
0.086468 -0.490264 -0.264383
0.521201 0.0596443 -0.279117
-0.485786 0.0644237 -0.256523
0.07946 -0.250487 0.49694
0.0661815 -0.26235 -0.484811
0.0631521 0.484658 -0.274977
0.0385128 -0.522133 -0.241034
0.511001 0.055883 -0.247337
-0.496334 0.0813265 -0.245814
0.0707162 -0.261149 0.48435
0.0905031 -0.255226 -0.47425
0.0564187 0.482984 -0.235719
0.0576337 -0.524491 -0.250809
0.488051 0.0400287 -0.260196
-0.507926 0.020842 -0.282734
0.066759 -0.233476 0.483961
0.0414055 -0.213064 -0.510703
0.0410551 0.479726 -0.232945
0.0341659 -0.510041 -0.22473
0.510452 0.0450666 -0.235643
-0.502954 0.0876886 -0.226171
0.0668478 -0.222046 0.499698
0.0612678 -0.22637 -0.489655
0.0780883 0.489396 -0.204228
0.0479973 -0.436758 -0.212087
0.522291 0.0646174 -0.239137
-0.457567 0.0576314 -0.214467
0.0651389 -0.2179 0.487129
0.076719 -0.195334 -0.491534
0.0647334 0.498362 -0.226085
0.0417416 -0.435592 -0.254996
0.545982 0.0882126 -0.241228
-0.499538 0.0600019 -0.191051
0.0551651 -0.172838 0.513808
0.0454364 -0.255871 -0.505148
0.0631425 0.508882 -0.231965
0.0684451 -0.487741 -0.237026
0.518433 0.0405525 -0.199149
-0.511813 0.0563137 -0.200281
0.0433049 -0.222112 0.482666
0.0633865 -0.16309 -0.487866
0.0243063 0.503744 -0.201067
0.01995 -0.504376 -0.21909
0.520618 0.0440446 -0.229175
-0.508164 0.0241938 -0.215889
0.0366227 -0.182098 0.525994
0.0630286 -0.122057 -0.521184
0.0208868 0.467448 -0.198324
0.0484268 -0.455267 -0.19091
0.488913 0.0434715 -0.169723
-0.494632 0.0583028 -0.182433
0.0597243 -0.191354 0.520633
0.0595167 -0.203012 -0.482307
0.0689968 0.503651 -0.167
0.0372377 -0.483483 -0.160523
0.526743 0.0744411 -0.186022
-0.502189 0.0871865 -0.151051
0.0294264 -0.160259 0.531377
0.0443718 -0.140492 -0.474374
0.0667548 0.546709 -0.199322
0.0574305 -0.475888 -0.164418
0.495306 0.0482639 -0.19514
-0.48614 0.0979854 -0.156536
0.0828238 -0.14801 0.531218
0.0479013 -0.179045 -0.50207
0.0777691 0.499799 -0.136648
0.0158178 -0.497781 -0.194998
0.542178 0.0618637 -0.158391
-0.510962 0.0488299 -0.161225
0.047371 -0.116529 0.482885
0.0846678 -0.120701 -0.487834
0.0460943 0.520103 -0.149674
0.0981678 -0.486443 -0.16536
0.486872 0.0495158 -0.149038
-0.494316 0.0807994 -0.154456
0.0662182 -0.0969328 0.475814
0.0092515 -0.107573 -0.511533
0.0427348 0.487513 -0.128963
0.0804059 -0.490418 -0.105131
0.471176 0.0313812 -0.131339
-0.489989 0.068032 -0.14262
0.0686614 -0.10401 0.495538
0.0792426 -0.131951 -0.546162
0.0409338 0.494219 -0.121387
0.0110242 -0.500273 -0.108408
0.462688 0.0446514 -0.116052
-0.495367 0.0417245 -0.111122
0.0278243 -0.154601 0.488442
0.0657956 -0.120422 -0.488743
0.0632688 0.481053 -0.14891
0.0675549 -0.488316 -0.161589
0.481269 0.0980548 -0.0832862
-0.514782 0.0742008 -0.119359
0.111536 -0.0945696 0.512261
0.0800325 -0.0825938 -0.516605
0.0660782 0.47705 -0.0897548
-0.00183303 -0.515169 -0.0826861
0.524876 0.0492882 -0.105909
-0.490667 0.0395622 -0.0860187
0.0659359 -0.100661 0.470849
0.051711 -0.0810365 -0.495733
0.0470686 0.495957 -0.0764257
0.0764491 -0.494088 -0.086096
0.494433 0.0767857 -0.12031
-0.513133 0.0512022 -0.112947
0.0666728 -0.0772213 0.479622
0.0542638 -0.0738022 -0.482393
0.0516372 0.536678 -0.074442
0.0415907 -0.514851 -0.0794418
0.527935 0.0680163 -0.080131
-0.489382 0.05702 -0.0940465
0.0710827 -0.0931435 0.519884
0.0264363 -0.0770137 -0.518021
0.0593979 0.491862 -0.105666
0.0769276 -0.482941 -0.0737343
0.490085 0.071318 -0.0882024
-0.540258 0.030496 -0.0678751
0.0471297 -0.0880634 0.509287
0.0625252 -0.0967839 -0.497611
0.0737279 0.496314 -0.0817646
0.0537883 -0.49546 -0.039586
0.503395 0.0556055 -0.047944
-0.484503 0.0376191 -0.0725756
0.0303678 -0.0827444 0.484124
0.0842583 -0.0468839 -0.525267
0.099671 0.514178 -0.0506377
0.041332 -0.472896 -0.0796395
0.516263 0.0490769 -0.0826015
-0.474304 0.0891504 -0.0513735
0.0554101 -0.0607537 0.465886
0.0195581 -0.0276662 -0.537666
0.0373705 0.478101 -0.0432997
0.0469734 -0.506847 -0.0298168
0.510415 0.0496977 -0.0264064
-0.530294 0.0705536 -0.071045
0.107541 -0.0705449 0.476362
0.0541403 -0.0235278 -0.503878
0.0517199 0.50422 -0.0646173
0.0196881 -0.477366 -0.0344408
0.512506 0.0260091 -0.0616682
-0.514607 0.0799367 -0.0663326
0.0381516 -0.0394053 0.530714
0.0297395 -0.0405333 -0.492777
0.0592211 0.495868 -0.0365663
0.0604374 -0.483384 -0.0654365
0.505225 0.034306 -0.0199035
-0.522956 0.0394407 -0.026553
0.0504958 -0.0270724 0.45868
0.0628177 -0.00897102 -0.532193
0.0437389 0.50012 -0.0242885
0.0367482 -0.46373 -0.0351583
0.505534 0.0424996 -0.00801705
-0.511153 0.0735481 0.017371
0.0541868 -0.0251804 0.498104
0.0913336 -0.000466258 -0.530416
0.0632082 0.493796 -0.00466494
0.0609715 -0.500214 0.0099745
0.522712 0.0973534 -0.0350704
-0.510372 0.0466203 0.0128983
0.0373215 -0.0511809 0.492611
0.0141762 -0.000958765 -0.498237
0.0177806 0.547907 0.0225274
0.053323 -0.488541 0.0243852
0.533275 0.040261 0.00333345
-0.521545 0.070134 0.028249
0.0645437 0.0135201 0.524326
0.051963 0.0292643 -0.505442
0.0541711 0.503603 0.0185922
0.0389539 -0.50387 0.00448634
0.475978 0.0367165 0.0410393
-0.522417 0.0652434 0.00249404
0.0413122 0.0260902 0.485267
0.0774665 0.00513471 -0.468361
0.0675019 0.479071 0.0364442
0.0532814 -0.484866 0.019772
0.493748 0.0553031 0.0332848
-0.491561 0.0463718 0.0234759
0.0665034 0.0568829 0.475749
0.0838534 0.0305115 -0.489968
0.0571392 0.497427 0.060496
0.0265844 -0.509582 0.0145449
0.53252 0.0498565 0.0277502
-0.535687 0.0456745 -0.0100611
0.0691609 0.04454 0.512915
0.0455715 -0.00963067 -0.48663
0.0651141 0.476516 0.0565222
0.052335 -0.514488 0.0566824
0.518782 0.032448 0.0415479
-0.538078 0.0771107 0.0433535
0.0913055 0.0665342 0.486847
0.062376 0.0731587 -0.484564
0.0437332 0.510435 0.025929
0.0207723 -0.516323 0.0306027
0.477001 0.0360759 0.068316
-0.50674 0.0652031 0.0436305
0.0570797 0.0504172 0.505824
0.0622634 0.0843123 -0.521448
0.0822061 0.491465 0.0652173
0.069095 -0.512139 0.0727578
0.512852 0.0697829 0.0877052
-0.50609 0.0458381 0.0805443
0.0616925 0.0504764 0.530466
0.0515854 0.0622073 -0.510551
0.0493262 0.50241 0.0780514
0.0707052 -0.481893 0.0661065
0.45712 0.078733 0.0795792
-0.555299 0.0416358 0.078169
0.0514053 0.0537383 0.487777
0.0688987 0.075706 -0.496018
-0.000491285 0.469104 0.0886043
0.0346862 -0.496821 0.0831578
0.495912 0.0613894 0.146749
-0.501431 0.061429 0.0792229
0.0281669 0.0814747 0.530649
0.0808258 0.146929 -0.46717
0.0765671 0.509195 0.126196
0.105561 -0.476549 0.0822222
0.484545 0.0920351 0.0348933
-0.500352 0.0286905 0.0995418
0.0743926 0.094799 0.508955
0.0866296 0.123367 -0.523794
0.046201 0.50947 0.0947653
0.0441185 -0.475104 0.123135
0.463491 0.0437931 0.102219
-0.507942 0.039603 0.0880955
0.0365175 0.117961 0.491384
0.0564347 0.104738 -0.508082
0.0185851 0.503745 0.116603
0.0930703 -0.505599 0.124378
0.480382 0.0253919 0.108776
-0.495889 0.0539201 0.117069
0.0647622 0.127272 0.510567
0.0376893 0.130621 -0.513726
0.0558049 0.505033 0.101986
0.0574677 -0.523208 0.117222
0.493113 0.0625722 0.100716
-0.530263 -0.00702146 0.0999535
0.0264184 0.144899 0.492587
0.0261304 0.164727 -0.508394
0.043458 0.514758 0.111845
0.0618111 -0.513924 0.116573
0.527718 0.0228655 0.118817
-0.536513 0.0529932 0.15205
0.059651 0.157062 0.496544
0.0421235 0.141694 -0.459928
0.0661058 0.483473 0.14542
0.0749664 -0.475494 0.115081
0.460237 0.0693377 0.138233
-0.501336 0.0558775 0.151647
0.0817381 0.137422 0.533062
0.0231775 0.151906 -0.490758
0.059718 0.49931 0.183701
0.0348332 -0.495353 0.189195
0.498195 0.0390658 0.17867
-0.513058 0.0424385 0.190542
0.0600936 0.196637 0.499674
0.0664309 0.173102 -0.506679
0.0377496 0.484251 0.145596
0.0683187 -0.528735 0.13989
0.470385 0.0668033 0.183763
-0.457186 0.0801709 0.121738
0.0465804 0.167123 0.499758
0.0501707 0.154076 -0.506315
0.070737 0.50335 0.194626
0.0877428 -0.48287 0.1651
0.509147 0.0137987 0.193167
-0.497702 0.0597832 0.198176
0.0334031 0.131283 0.506554
0.0228822 0.212644 -0.502531
0.0672356 0.501879 0.204849
0.0437891 -0.53364 0.169227
0.485594 0.080398 0.168785
-0.481675 0.0272426 0.168549
0.0150639 0.179551 0.476615
0.00799692 0.191987 -0.508341
0.0607116 0.518273 0.170772
0.0638555 -0.497766 0.201102
0.515272 0.0333249 0.212522
-0.50486 0.0484937 0.191939
0.0660532 0.243336 0.515352
0.0652165 0.212238 -0.486007
0.0453493 0.486359 0.183909
0.0495065 -0.495902 0.210412
0.517305 0.0769873 0.191639
-0.500557 0.0625721 0.215234
0.106702 0.24015 0.511671
0.0845672 0.225947 -0.47698
0.0613054 0.501603 0.21156
0.0764372 -0.524705 0.202436
0.474668 0.0488557 0.230507
-0.484303 0.0213732 0.231374
0.0732346 0.231262 0.498787
0.0553592 0.254527 -0.502151
0.0743402 0.503025 0.193663
0.0448077 -0.491778 0.223272
0.498229 0.0502903 0.202972
-0.491607 0.0578507 0.219169
0.0664045 0.225736 0.492478
0.0353429 0.245961 -0.497275
0.0846911 0.49807 0.211029
0.031328 -0.515054 0.266815
0.498351 0.0483534 0.212771
-0.506959 0.0343629 0.255308
0.0386508 0.235948 0.495879
0.0493605 0.25544 -0.479431
0.0762704 0.495668 0.251875
0.0830483 -0.512198 0.243156
0.501459 0.0531043 0.238271
-0.478598 0.0492117 0.239512
0.0493504 0.274188 0.506557
0.0371918 0.260301 -0.496306
0.0489067 0.519094 0.239827
0.0623833 -0.514277 0.272153
0.489698 0.043294 0.244408
-0.501444 0.0487107 0.293624
0.0767967 0.266655 0.48364
0.0382521 0.246299 -0.491927
0.0510844 0.514145 0.232806
0.057126 -0.479566 0.280552
0.488383 0.0799585 0.263575
-0.501106 0.0324229 0.28399
0.0362969 0.272244 0.517076
0.0915332 0.257223 -0.524756
0.0427554 0.512979 0.28038
0.0639378 -0.502765 0.273116
0.482235 0.0394749 0.302034
-0.498225 0.0873582 0.257229
0.0752892 0.281602 0.51117
0.0590042 0.287938 -0.505733
0.050585 0.496228 0.258382
0.0429129 -0.473395 0.320421
0.461459 0.048522 0.285629
-0.500853 0.0531878 0.259518
0.0650849 0.316215 0.545907
0.0344995 0.259363 -0.510953
0.0629516 0.462895 0.300242
0.0494901 -0.528404 0.291283
0.50787 0.0507177 0.302884
-0.492716 0.041082 0.269258
0.0635366 0.312444 0.514097
0.0845695 0.322187 -0.504734
0.0456456 0.504786 0.356382
0.0609841 -0.489538 0.275963
0.521953 0.0536389 0.351382
-0.48385 0.0636451 0.324312
0.0716414 0.345293 0.511234
0.0584962 0.327297 -0.498927
0.0281948 0.476785 0.286774
0.0274976 -0.501987 0.338753
0.465381 0.0843502 0.286221
-0.475041 0.0705105 0.301477
0.105494 0.323758 0.475199
0.0352838 0.332484 -0.490519
0.0483681 0.531805 0.357593
0.0751834 -0.510049 0.291906
0.510481 0.0610066 0.336201
-0.512899 0.0438776 0.306347
0.103984 0.352185 0.533826
0.0431529 0.36723 -0.497464
0.0334286 0.503659 0.315768
0.0227897 -0.461254 0.311805
0.51561 0.0577631 0.357168
-0.469649 0.0809563 0.359454
0.0593441 0.340097 0.50215
0.0348215 0.306831 -0.474222
0.077587 0.49492 0.343276
0.0859291 -0.50827 0.369574
0.466855 0.0503241 0.356421
-0.502471 0.0844743 0.311868
0.0486015 0.345124 0.507105
0.0807031 0.362088 -0.49493
0.0791647 0.511932 0.358987
0.0360608 -0.481722 0.399977
0.51041 0.100452 0.383166
-0.49049 0.0827709 0.369756
0.0253028 0.373952 0.509139
0.0877727 0.380529 -0.445217
0.0618702 0.458176 0.370019
0.0815269 -0.494989 0.376042
0.487495 0.0651441 0.396998
-0.511482 0.0517191 0.368635
0.0714197 0.378595 0.508936
0.0635265 0.389951 -0.505111
0.0652851 0.514779 0.382006
0.0455314 -0.453691 0.40027
0.470416 0.0746689 0.353209
-0.513336 0.0554932 0.387761
0.0812027 0.372036 0.483607
0.00651035 0.409488 -0.504556
0.0502629 0.496939 0.383492
0.0264562 -0.517176 0.349179
0.495917 0.0873632 0.404417
-0.489064 0.0607924 0.416144
0.0821243 0.389078 0.511025
0.0791054 0.404425 -0.47125
0.0896484 0.462522 0.404277
0.0695147 -0.506179 0.379501
0.428062 0.0304423 0.401616
-0.503063 0.0141592 0.363377
0.0552387 0.394007 0.497375
0.0833457 0.372905 -0.545702
0.0584553 0.471962 0.41071
0.0477619 -0.483712 0.404163
0.535754 0.0819969 0.384749
-0.518686 0.0685382 0.405843
0.0497246 0.430976 0.498858
0.0386623 0.444594 -0.517709
0.0480759 0.540813 0.405025
0.0583483 -0.493509 0.434622
0.502773 0.0521774 0.408001
-0.508479 0.049727 0.424253
0.0882996 0.41672 0.517474
0.0539515 0.401006 -0.502466
0.0561996 0.494398 0.409794
0.0577624 -0.483734 0.445201
0.478853 0.0474052 0.418234
-0.482198 0.0415021 0.420046
0.0324246 0.449189 0.496702
0.0496806 0.451175 -0.56528
0.0203455 0.515033 0.441121
0.0755461 -0.529225 0.441308
0.50357 0.0640776 0.422177
-0.514971 0.0833276 0.434547
-0.00302218 0.44118 0.47936
0.0934187 0.459513 -0.513631
0.0673473 0.514242 0.440552
0.0804576 -0.491307 0.467015
0.538894 0.058585 0.430927
-0.501715 0.0872506 0.454714
0.053715 0.465904 0.517618
0.0860866 0.456404 -0.497609
0.0487325 0.481999 0.452321
0.0581501 -0.492101 0.465404
0.514345 0.0606888 0.485042
-0.500639 0.0812724 0.449458
0.048182 0.467021 0.48166
0.0648051 0.476288 -0.480033
0.0435731 0.459551 0.485306
0.0496226 -0.488733 0.467483
0.554771 0.0646252 0.471295
-0.473515 0.0234394 0.510502
0.0343838 0.501448 0.494703
0.0411221 0.425277 -0.557991
0.0660322 0.457766 0.464352
0.0345713 -0.565233 0.46633
0.496964 0.0199238 0.48294
-0.513985 0.0457018 0.507981
0.00359759 0.4932 0.477593
0.0542071 0.472685 -0.509718
0.0163976 0.473133 0.477883
0.0642792 -0.504149 0.509191
0.4934 0.083246 0.46641
-0.507256 0.030409 0.488533
0.0277049 0.48644 0.495135
0.0448241 0.526436 -0.541391
0.0759208 0.502755 0.526616
0.0443856 -0.53177 0.514504
0.494573 0.0689198 0.517559
-0.534705 0.051768 0.482017
0.0505155 -0.491615 0.530753
0.0848232 -0.541115 -0.535658
0.0659966 0.484243 -0.495015
0.0605969 -0.499788 -0.497932
0.504276 0.0833195 -0.493963
-0.518999 0.0839499 -0.496007
0.0509225 -0.474952 0.49577
0.0637134 -0.458087 -0.491871
0.0584569 0.520757 -0.486745
0.0723797 -0.503249 -0.507924
0.531013 0.0975476 -0.474615
-0.482774 0.0789864 -0.513937
0.0384191 -0.500128 0.509119
0.0597136 -0.468138 -0.498741
0.0468091 0.498804 -0.513422
0.0885297 -0.527383 -0.480568
0.492145 0.0703295 -0.48585
-0.487244 0.0556901 -0.472931
0.0841927 -0.480695 0.498726
0.0882737 -0.50174 -0.487645
0.070882 0.484884 -0.457736
0.0668827 -0.489216 -0.476778
0.494248 0.0300674 -0.439098
-0.515111 0.0526298 -0.475362
0.0766223 -0.457009 0.484917
0.06734 -0.437029 -0.510444
0.0830834 0.505468 -0.450766
0.0691997 -0.499334 -0.484248
0.518035 0.0811721 -0.45489
-0.497694 0.0571762 -0.435576
0.0843098 -0.440608 0.479628
0.0606592 -0.41083 -0.505499
0.0663498 0.507673 -0.459766
0.0958742 -0.519093 -0.438431
0.49161 0.109973 -0.410358
-0.498988 0.0895469 -0.461271
0.0737235 -0.427784 0.486357
0.0424997 -0.479206 -0.470677
0.0865739 0.519168 -0.460682
0.0250954 -0.490486 -0.426033
0.489622 0.0400904 -0.446338
-0.498588 0.0625969 -0.431405
0.0743497 -0.427538 0.507637
0.0253389 -0.452843 -0.472572
0.0161083 0.537535 -0.369758
0.0696318 -0.524767 -0.43325
0.538401 0.0582865 -0.439226
-0.469155 0.0897776 -0.441875
0.0528755 -0.462462 0.496622
0.0471677 -0.46097 -0.480017
0.0588261 0.483329 -0.40972
0.0562419 -0.50422 -0.42627
0.490091 0.0336681 -0.433332
-0.504829 0.030606 -0.428878
0.0750207 -0.41867 0.507535
0.0553386 -0.402861 -0.50399
0.0384856 0.483206 -0.397422
0.0560632 -0.493338 -0.445026
0.50347 0.0637136 -0.417576
-0.4885 0.0541748 -0.42787
0.0710997 -0.404701 0.529725
0.0672959 -0.407738 -0.521853
0.0601047 0.524985 -0.413935
0.0783218 -0.514962 -0.405471
0.50489 0.112723 -0.407289
-0.459215 0.0651916 -0.389424
0.0538646 -0.350384 0.512117
0.0704168 -0.408391 -0.499348
0.049315 0.499566 -0.412968
0.0450568 -0.524813 -0.345056
0.509836 0.0574715 -0.389976
-0.521278 0.0757532 -0.406284
0.0683096 -0.390378 0.521156
0.0650496 -0.389662 -0.528004
0.0780036 0.505338 -0.398699
0.0731611 -0.479227 -0.397187
0.506711 0.065882 -0.42083
-0.510669 0.0680606 -0.3704
0.109824 -0.374054 0.494661
0.0728172 -0.354443 -0.448352
0.0519148 0.511415 -0.366808
0.0542485 -0.465273 -0.378289
0.479783 0.0620316 -0.379936
-0.48043 0.0736741 -0.418628
0.0905578 -0.378981 0.490715
0.0570863 -0.406612 -0.509112
0.0896034 0.486976 -0.346591
0.105729 -0.563464 -0.335421
0.50923 0.0582754 -0.346664
-0.519937 0.0738574 -0.371148
0.0664287 -0.320233 0.4929
0.0429558 -0.355924 -0.522702
0.0633537 0.496232 -0.335598
0.0817742 -0.482385 -0.355985
0.490114 0.0596039 -0.394567
-0.474293 0.0537777 -0.300639
0.0441804 -0.357029 0.49858
0.063578 -0.293561 -0.485166
0.101985 0.481279 -0.371757
0.0605025 -0.464972 -0.346933
0.472556 0.0627787 -0.323928
-0.490683 0.0758646 -0.343676
0.0572542 -0.350501 0.486963
0.0672577 -0.325124 -0.489981
0.0565797 0.508084 -0.30399
0.0943459 -0.518803 -0.313536
0.501682 0.0637219 -0.32524
-0.508263 0.0587669 -0.333341
0.0673194 -0.295427 0.492706
0.0881481 -0.342976 -0.477043
0.0467678 0.510309 -0.314738
0.0240228 -0.479073 -0.312892
0.506571 0.0730896 -0.349107
-0.491479 0.054915 -0.325353
0.0798975 -0.319882 0.507156
0.0691755 -0.297118 -0.485393
0.0679019 0.469447 -0.315513
0.0424411 -0.510593 -0.301704
0.532632 0.0308983 -0.340463
-0.496226 0.0518376 -0.287846
0.0795664 -0.273869 0.458389
0.073103 -0.315245 -0.519011
0.0685106 0.475779 -0.297794
0.0553475 -0.509643 -0.268587
0.505265 0.0509372 -0.271635
-0.461646 0.046232 -0.29501
0.0526 -0.241028 0.52977
0.0706069 -0.298256 -0.45059
0.0614272 0.488313 -0.3213
0.0644101 -0.523716 -0.27613
0.487576 0.0921055 -0.30973
-0.519214 0.0335932 -0.303477
0.0556869 -0.237677 0.495631
0.0497023 -0.265868 -0.520552
0.053079 0.510511 -0.259761
0.100216 -0.5011 -0.253249
0.491669 0.0719848 -0.293117
-0.505474 0.0732453 -0.263696
0.0550393 -0.248236 0.499067
0.0832782 -0.233723 -0.496579
0.0806269 0.532026 -0.283905
0.0825609 -0.505638 -0.299666
0.477377 0.0708103 -0.229836
-0.499703 0.0539958 -0.231119
0.0457802 -0.239829 0.534929
0.0559752 -0.262807 -0.519062
0.0816685 0.510961 -0.230788
0.0549065 -0.499419 -0.254999
0.517807 0.0627406 -0.228801
-0.503141 0.0443305 -0.268872
0.0389931 -0.242494 0.480061
0.0902618 -0.269991 -0.533652
0.0592453 0.504578 -0.225926
0.0687396 -0.53846 -0.226948
0.519987 0.047861 -0.23489
-0.422313 0.094938 -0.235944
0.0633107 -0.240971 0.511377
0.0498947 -0.215353 -0.512316
0.0350214 0.503647 -0.19513
0.0795882 -0.458805 -0.262727
0.547676 0.00560389 -0.205017
-0.497854 0.0485342 -0.287164
0.0950308 -0.237465 0.515259
0.0762865 -0.22415 -0.501762
0.0665547 0.492457 -0.233061
0.07656 -0.507362 -0.216295
0.536841 0.0834744 -0.241739
-0.471454 0.0807306 -0.222995
0.0963992 -0.218501 0.503814
0.0701421 -0.250901 -0.463411
0.0659637 0.487888 -0.215345
0.0601636 -0.503704 -0.204578
0.530458 0.0959874 -0.231795
-0.502829 0.0823452 -0.236759
0.0644751 -0.227615 0.492364
0.015333 -0.233998 -0.482487
0.064035 0.49713 -0.221103
0.0893751 -0.490339 -0.215437
0.493349 0.0991053 -0.216344
-0.497448 0.0312667 -0.137429
0.0409131 -0.152867 0.522081
0.0956453 -0.190883 -0.520196
0.0703302 0.48824 -0.195553
0.0798985 -0.486981 -0.194423
0.519968 0.0649502 -0.184262
-0.49947 0.0633489 -0.212658
0.0422891 -0.221308 0.492373
0.0608214 -0.191299 -0.489063
0.0721922 0.502024 -0.218764
0.0949334 -0.479305 -0.182641
0.528766 0.0712047 -0.168904
-0.472264 0.0575688 -0.157459
0.0561518 -0.20249 0.459159
0.0472569 -0.160022 -0.49596
0.0328767 0.483271 -0.184187
0.0483037 -0.511092 -0.195239
0.49016 0.0627206 -0.143533
-0.496294 0.0691567 -0.177028
0.082643 -0.187378 0.464688
0.0400204 -0.175054 -0.47323
0.0523382 0.485912 -0.174054
0.0454419 -0.504658 -0.183351
0.53334 0.0455261 -0.184311
-0.479273 0.089209 -0.155222
0.0396393 -0.19509 0.516411
0.0692786 -0.179698 -0.483908
0.0581052 0.508828 -0.173339
0.0518664 -0.505653 -0.174166
0.451233 0.0616498 -0.164832
-0.548993 0.064978 -0.139753
0.0855351 -0.112214 0.50495
0.0769573 -0.153382 -0.485531
0.0307386 0.487715 -0.10761
0.0555034 -0.490838 -0.17377
0.476731 0.0543685 -0.16629
-0.511236 0.0696448 -0.139571
0.0992503 -0.131817 0.495163
0.0787145 -0.152301 -0.516262
0.0395659 0.487615 -0.119057
0.0605443 -0.514933 -0.127515
0.500966 0.0665625 -0.15953
-0.496395 0.0508338 -0.123748
0.0564396 -0.119454 0.460848
0.0832371 -0.112891 -0.484305
0.0379835 0.477558 -0.0999267
0.0765803 -0.514714 -0.108203
0.488201 0.0737712 -0.0634647
-0.469301 0.0600415 -0.142487
0.0612679 -0.118847 0.518567
0.0848299 -0.0763978 -0.470075
0.0758175 0.521427 -0.129201
0.10231 -0.500201 -0.123021
0.503387 0.0543094 -0.121398
-0.489561 0.0282672 -0.121325
0.0776807 -0.119926 0.543403
0.0625076 -0.0899342 -0.495092
0.0751798 0.473062 -0.105746
0.0486438 -0.521587 -0.153645
0.456448 0.0605501 -0.105633
-0.481437 0.0963008 -0.0731743
0.0839577 -0.134222 0.464595
0.0687722 -0.0867782 -0.53314
0.0533355 0.510636 -0.0495835
0.0762679 -0.446269 -0.126817
0.474066 0.0588981 -0.0740056
-0.506249 0.0535281 -0.0949587
0.0443148 -0.108403 0.52683
0.0821146 -0.094001 -0.508416
0.0845046 0.501007 -0.0772912
0.0519694 -0.480311 -0.100479
0.48378 0.0878462 -0.0599053
-0.500268 0.0556504 -0.094052
0.0598016 -0.0815771 0.529714
0.0587739 -0.0801569 -0.503986
0.104699 0.540156 -0.0553721
0.0481549 -0.50498 -0.0911688
0.510624 0.0840741 -0.0984714
-0.510177 0.0747078 -0.0721936
0.0488553 -0.0952066 0.47903
0.073928 -0.0640534 -0.48331
0.0670624 0.473704 -0.0952296
0.054195 -0.476741 -0.0666966
0.482489 0.102368 -0.0874206
-0.498949 0.0773316 -0.0460745
0.0566357 -0.0710221 0.518163
0.0419402 -0.0402008 -0.500125
0.0701138 0.48641 -0.0637566
0.0630135 -0.506102 -0.0640549
0.505121 0.0615402 -0.0501218
-0.48539 0.0780426 -0.0450078
0.0579914 -0.0643949 0.499615
0.0616577 -0.0473321 -0.541431
0.112558 0.458961 -0.0771582
0.0515819 -0.504248 -0.0159871
0.512511 0.047924 -0.0282471
-0.501554 0.083112 -0.0807226
0.0566183 -0.0346882 0.48912
0.0479887 -9.98477e-05 -0.482189
0.0676939 0.5081 -0.0309497
0.0997679 -0.478401 -0.051237
0.467827 0.071139 -0.020497
-0.489486 0.0618863 -0.0595168
0.0759216 -0.04011 0.472738
0.0959834 -0.0510116 -0.502132
0.0865431 0.492665 -0.00862977
0.0570754 -0.496674 -0.0402262
0.483222 0.0498594 -0.0426006
-0.496172 0.100391 -0.0397492
0.0730681 -0.0112388 0.474452
0.0763422 -0.0464579 -0.493163
0.0826283 0.503223 -0.0379058
0.0469458 -0.468875 -0.0156224
0.494015 0.0595389 -0.0233418
-0.473227 0.0727358 -0.0280819
0.0872466 -0.0604702 0.490513
0.0505119 -0.00403767 -0.525078
0.0761669 0.522085 0.0196141
0.105477 -0.524609 0.0177266
0.509828 0.029137 0.00478166
-0.476855 0.0895371 -0.0593536
0.0429076 0.00245274 0.493722
0.0691312 0.00725357 -0.477651
0.0737207 0.481254 -0.0176648
0.0511233 -0.509497 0.0254148
0.504625 0.0798768 -0.00392256
-0.509567 0.0747419 -0.000465247
0.0397019 0.00482664 0.462627
0.0692562 0.025955 -0.456654
0.0830638 0.492802 0.0321271
0.0833932 -0.527776 -0.0242864
0.534737 0.0402079 0.0279794
-0.52327 0.0691383 0.0133493
0.0745197 -0.00415135 0.455128
0.067264 -0.00125383 -0.509924
0.073159 0.515193 0.00748435
0.0672593 -0.481852 0.0259849
0.508665 0.0317634 0.0302336
-0.502431 0.078701 0.0145163
0.0710586 0.0346074 0.506062
0.0679988 0.0353557 -0.507017
0.071776 0.508583 0.0399198
0.0991604 -0.52463 0.0478405
0.454635 0.0601347 0.042667
-0.488889 0.0662645 0.0498997
0.0573673 0.0419867 0.498892
0.0322932 0.0331874 -0.519563
0.0813138 0.513605 0.0622297
0.0439503 -0.5257 0.0351293
0.505387 0.0474219 0.107436
-0.493432 0.0541276 0.0335934
0.0554397 0.0764425 0.512719
0.0439506 0.0897734 -0.515822
0.0614791 0.511693 0.0678002
0.0671636 -0.512188 0.0471814
0.499135 0.0729694 0.0425744
-0.477671 0.0908384 0.0429406
0.0313352 0.0894421 0.501869
0.0737712 0.0517807 -0.527834
0.0544642 0.495737 0.0528258
0.0510555 -0.527775 0.0753038
0.513793 0.0783685 0.0900682
-0.495789 0.093779 0.0681309
0.0161593 0.0508641 0.496866
0.0684897 0.0466533 -0.50888
0.0871965 0.525608 0.0790272
0.0559054 -0.475938 0.0379444
0.481591 0.0553736 0.0769299
-0.515156 0.028127 0.0186722
0.0845947 0.0262457 0.496012
0.0666618 0.101619 -0.527951
0.0683779 0.479702 0.051629
0.0726342 -0.476251 0.0757226
0.467276 0.110866 0.0896475
-0.483864 0.0907952 0.0889597
0.0570707 0.0899328 0.509431
0.0578831 0.103586 -0.493288
0.0874284 0.488871 0.0976174
0.0590161 -0.533483 0.12337
0.505308 0.0502626 0.11662
-0.50177 0.0444508 0.0769694
0.0699148 0.079818 0.546014
0.0589453 0.106474 -0.504284
0.0983548 0.48565 0.0791389
0.0785147 -0.512732 0.105587
0.484597 0.0621874 0.0880084
-0.499189 0.0474071 0.0888538
0.079799 0.107735 0.531427
0.0629736 0.141028 -0.480318
0.0473355 0.479655 0.114346
0.0738087 -0.46178 0.13643
0.527059 0.0571554 0.109815
-0.508975 0.0535312 0.126175
0.0624397 0.137155 0.499224
0.0483267 0.130453 -0.503789
0.0721116 0.47588 0.129028
0.0426215 -0.485713 0.149009
0.510647 0.0478863 0.0888136
-0.473211 0.0519022 0.129284
0.0623108 0.163261 0.496042
0.106323 0.120234 -0.484166
0.0336192 0.489428 0.155592
0.10351 -0.520941 0.125438
0.529415 0.0729725 0.178619
-0.491634 0.0704091 0.149767
0.0789275 0.116879 0.508624
0.0953363 0.145207 -0.490462
0.0523977 0.480236 0.148977
0.0686046 -0.535763 0.141544
0.515204 0.0756356 0.161702
-0.525189 0.0641885 0.157729
0.0650337 0.151956 0.491573
0.0497305 0.159192 -0.49945
0.0830548 0.502767 0.192452
0.0569934 -0.490536 0.13766
0.495478 0.0836759 0.148329
-0.522951 0.0786785 0.155349
0.0450807 0.197292 0.493596
0.0513136 0.157266 -0.48805
0.0627718 0.469502 0.159868
0.0519127 -0.459165 0.158005
0.489722 0.0406975 0.164005
-0.496086 0.0646046 0.146941
0.0866188 0.188011 0.516071
0.0751678 0.194317 -0.482552
0.0754717 0.503223 0.160158
0.0909147 -0.481456 0.185819
0.470445 0.0881562 0.141548
-0.468682 0.0679205 0.189004
0.0343777 0.166319 0.499809
0.0787115 0.169393 -0.472254
0.0411222 0.527303 0.156642
0.0820282 -0.521624 0.193134
0.477721 0.0479233 0.177096
-0.501194 0.0607852 0.195659
0.0454063 0.172361 0.489792
0.0626233 0.192076 -0.457841
0.0724223 0.495271 0.190801
0.0358783 -0.52742 0.20871
0.515615 0.0611939 0.228158
-0.462747 0.0557926 0.209105
0.0746502 0.227117 0.523331
0.0596858 0.240744 -0.512712
0.0967126 0.529795 0.225714
0.0723802 -0.520992 0.223429
0.483432 0.0522734 0.227592
-0.498553 0.039265 0.238112
0.0775015 0.222039 0.498248
0.0291397 0.197604 -0.496613
0.0908896 0.515927 0.213284
0.0863362 -0.529605 0.206023
0.461966 0.0555344 0.196592
-0.528652 0.0742295 0.208554
0.0489517 0.240816 0.486553
0.0455289 0.210727 -0.483464
0.0813498 0.510301 0.211751
0.0735863 -0.527221 0.203171
0.484554 0.0789749 0.220332
-0.54608 0.0678134 0.239136
0.0595955 0.240737 0.474092
0.0377473 0.220307 -0.493767
0.0719317 0.526795 0.242792
0.0800253 -0.468978 0.249453
0.456833 0.0653231 0.235667
-0.479201 0.0906618 0.238178
0.0588955 0.257791 0.48432
0.0661666 0.233356 -0.500371
0.0565725 0.505639 0.240676
0.0476075 -0.503403 0.235323
0.511285 0.0856635 0.219722
-0.50409 0.0302671 0.236572
0.0293648 0.26232 0.509155
0.0959028 0.228308 -0.488793
0.078539 0.515157 0.23814
0.070465 -0.507434 0.263074
0.477254 0.0814797 0.263275
-0.476223 0.0889515 0.271655
0.0503347 0.263001 0.492354
0.0641213 0.274016 -0.486883
0.0828513 0.503098 0.286636
0.066645 -0.485216 0.235198
0.515557 0.0608741 0.316401
-0.512882 0.0445747 0.273055
0.0716608 0.27914 0.492937
0.0482451 0.275593 -0.483882
0.107623 0.482604 0.272454
0.104632 -0.499717 0.252642
0.514552 0.0700989 0.286874
-0.491885 0.0551169 0.282687
0.0679974 0.309872 0.508663
0.0586086 0.294033 -0.528662
0.0861085 0.520557 0.294845
0.0989742 -0.487713 0.272684
