ply
format ascii 1.0
comment sampling resolution: 0.01
comment noise level: 0.01
comment Created by Open3D
element vertex 1657
property double x
property double y
property double z
end_header
-0.48555 -0.21654 -0.215512
-0.239093 -0.176824 0.476153
-0.233647 -0.195266 -0.494862
-0.221637 0.503581 -0.17624
-0.24103 -0.510907 -0.201149
0.509628 -0.231584 -0.218531
-0.50117 -0.230616 -0.187468
-0.230412 -0.184709 0.506957
-0.211828 -0.192675 -0.51372
-0.242682 0.505711 -0.204722
-0.240658 -0.491682 -0.192135
0.5019 -0.231926 -0.181967
-0.494912 -0.228989 -0.199537
-0.210345 -0.183453 0.493362
-0.22517 -0.162092 -0.50165
-0.23726 0.485869 -0.166716
-0.240504 -0.489285 -0.157793
0.515334 -0.219815 -0.173188
-0.50702 -0.231981 -0.165467
-0.219699 -0.167234 0.505669
-0.220456 -0.173704 -0.490187
-0.226793 0.488365 -0.185531
-0.239997 -0.49378 -0.160732
0.50969 -0.251279 -0.164214
-0.501744 -0.247752 -0.159375
-0.236217 -0.138707 0.506202
-0.220071 -0.156804 -0.509936
-0.222476 0.504464 -0.158673
-0.225562 -0.496615 -0.150168
0.490829 -0.244156 -0.170037
-0.503528 -0.223436 -0.153872
-0.21462 -0.141678 0.496953
-0.227739 -0.143264 -0.499699
-0.220459 0.488979 -0.157035
-0.212553 -0.511384 -0.151463
0.485739 -0.218413 -0.157652
-0.504577 -0.228417 -0.165009
-0.210734 -0.145915 0.516054
-0.220424 -0.137037 -0.498933
-0.214873 0.505957 -0.138604
-0.232571 -0.498358 -0.135536
0.496225 -0.224152 -0.130289
-0.496649 -0.223051 -0.136497
-0.23609 -0.13386 0.508111
-0.234034 -0.137312 -0.485071
-0.221292 0.496969 -0.107464
-0.224666 -0.494672 -0.130609
0.503744 -0.2264 -0.131766
-0.520263 -0.22023 -0.126941
-0.216896 -0.116403 0.490989
-0.236502 -0.111004 -0.505954
-0.210535 0.495515 -0.148516
-0.220733 -0.505137 -0.121972
0.498628 -0.219816 -0.130592
-0.504478 -0.21141 -0.117125
-0.211089 -0.104763 0.505336
-0.242089 -0.112065 -0.497434
-0.224552 0.494551 -0.109802
-0.232539 -0.518067 -0.103014
0.506206 -0.230358 -0.104918
-0.488857 -0.231783 -0.0993415
-0.231741 -0.112252 0.514188
-0.231264 -0.100013 -0.518759
-0.234123 0.508877 -0.113283
-0.218877 -0.498562 -0.11764
0.494157 -0.231626 -0.0986439
-0.501232 -0.208178 -0.0813192
-0.227415 -0.089743 0.491997
-0.221543 -0.0820966 -0.485455
-0.221655 0.499257 -0.0839337
-0.229014 -0.499069 -0.0829339
0.501757 -0.221413 -0.105184
-0.516657 -0.220872 -0.0914784
-0.217271 -0.0855067 0.49317
-0.22589 -0.0644897 -0.51577
-0.226972 0.50262 -0.0859111
-0.238188 -0.497954 -0.0690895
0.492467 -0.235029 -0.0624734
-0.497214 -0.218615 -0.0758802
-0.239048 -0.080748 0.495148
-0.222569 -0.0746196 -0.495556
-0.229645 0.482535 -0.0470123
-0.230559 -0.499231 -0.0705985
0.49147 -0.219333 -0.0734293
-0.496964 -0.23668 -0.0386941
-0.225753 -0.0414152 0.504139
-0.227279 -0.0612852 -0.489767
-0.218835 0.511077 -0.0521279
-0.23028 -0.49691 -0.0513759
0.507316 -0.217123 -0.0637149
-0.521489 -0.211921 -0.0599082
-0.224258 -0.0330094 0.506617
-0.247791 -0.0442573 -0.494942
-0.231521 0.480769 -0.053668
-0.234639 -0.492173 -0.0432521
0.50973 -0.220522 -0.0306589
-0.51426 -0.237177 -0.0602462
-0.238882 -0.0243842 0.526398
-0.232042 -0.0437091 -0.498863
-0.235763 0.480709 -0.0327247
-0.225567 -0.490292 -0.039115
0.48937 -0.233978 -0.0391026
-0.490853 -0.242385 -0.0175955
-0.210597 -0.0246449 0.505222
-0.241619 -0.0359047 -0.495809
-0.226493 0.493125 -0.0312265
-0.23948 -0.496782 -0.0152112
0.506272 -0.226675 -0.039199
-0.507475 -0.23587 -0.0208213
-0.221905 -0.0177038 0.499764
-0.221713 -0.0236437 -0.490815
-0.239392 0.496715 -0.0142485
-0.228986 -0.525994 -0.0195584
0.491651 -0.234628 -0.00123691
-0.484093 -0.233612 -0.0140833
-0.224861 -0.0182179 0.48665
-0.243299 -0.0119683 -0.493725
-0.227473 0.512189 -0.00676518
-0.238248 -0.481021 -0.011374
0.495041 -0.217453 -0.000810811
-0.498807 -0.248829 -0.0120091
-0.239806 -0.0147651 0.486147
-0.22073 -0.00342283 -0.478737
-0.217856 0.493648 0.00283713
-0.223923 -0.496846 0.0167978
0.494678 -0.225685 7.4469e-05
-0.499642 -0.229136 -0.00154831
-0.211396 0.026275 0.512313
-0.228776 0.0284724 -0.503419
-0.220943 0.492047 0.0128567
-0.219656 -0.505452 0.0173007
0.501724 -0.222615 0.0154503
-0.487737 -0.210847 0.00834238
-0.237872 0.0210517 0.515467
-0.227587 0.0165706 -0.497147
-0.231953 0.487926 0.0375184
-0.211186 -0.493018 0.0229591
0.503982 -0.225938 0.0297182
-0.499252 -0.241872 0.0359165
-0.211381 0.0452523 0.493107
-0.234654 0.0443225 -0.495219
-0.222418 0.496944 0.0283387
-0.239203 -0.502021 0.0481309
0.496733 -0.222085 0.0331475
-0.48732 -0.201743 0.0433896
-0.243745 0.0370939 0.499305
-0.219421 0.0532644 -0.50156
-0.230757 0.49799 0.0662967
-0.246544 -0.486968 0.0463418
0.497357 -0.232518 0.060978
-0.50368 -0.203026 0.027422
-0.225452 0.0580935 0.488558
-0.204425 0.0306618 -0.505145
-0.229682 0.480037 0.0588602
-0.227794 -0.497017 0.0563319
0.496096 -0.243913 0.0405914
-0.510368 -0.23847 0.0584204
-0.215232 0.055166 0.498399
-0.208004 0.0512694 -0.48527
-0.206241 0.504982 0.0678521
-0.214858 -0.479771 0.073605
0.501651 -0.222768 0.0668774
-0.498554 -0.235768 0.0649058
-0.203037 0.0737186 0.510294
-0.206538 0.0690691 -0.484651
-0.219479 0.516074 0.0850364
-0.220928 -0.50251 0.0735968
0.516106 -0.225981 0.0756845
-0.503888 -0.228573 0.0550484
-0.222428 0.0618762 0.506877
-0.24473 0.0961805 -0.50066
-0.201578 0.502468 0.0851192
-0.229164 -0.530992 0.0932802
0.512452 -0.220158 0.0777017
-0.488231 -0.237496 0.0896596
-0.217784 0.078427 0.50646
-0.23799 0.0897133 -0.493771
-0.233019 0.500694 0.0951897
-0.230973 -0.511886 0.118496
0.519505 -0.225137 0.105019
-0.504343 -0.239824 0.0914651
-0.225087 0.11257 0.506976
-0.21743 0.124985 -0.509627
-0.228923 0.50487 0.115609
-0.228717 -0.509453 0.0977259
0.491385 -0.219984 0.109085
-0.500967 -0.225655 0.102644
-0.228778 0.110058 0.498978
-0.21705 0.117977 -0.492815
-0.225521 0.503488 0.114387
-0.226223 -0.486373 0.109112
0.488375 -0.224886 0.111816
-0.495504 -0.24762 0.128299
-0.206792 0.115977 0.476211
-0.230958 0.136619 -0.497607
-0.228496 0.501268 0.109562
-0.2333 -0.497135 0.122009
0.495715 -0.22764 0.134401
-0.488178 -0.22789 0.127447
-0.222663 0.139545 0.501672
-0.226694 0.136679 -0.505212
-0.229963 0.509642 0.131504
-0.219594 -0.509385 0.14555
0.511071 -0.218158 0.133846
-0.49999 -0.221487 0.133016
-0.250473 0.14558 0.494465
-0.212552 0.144475 -0.502362
-0.236081 0.49618 0.141841
-0.228112 -0.493093 0.16138
0.478717 -0.220022 0.162601
-0.504224 -0.230157 0.12284
-0.223299 0.159315 0.4963
-0.236292 0.158045 -0.511452
-0.237448 0.489615 0.152008
-0.230591 -0.477249 0.13909
0.481924 -0.226276 0.153087
-0.517113 -0.216215 0.167999
-0.233153 0.156265 0.515858
-0.227631 0.175318 -0.501964
-0.234944 0.486067 0.19069
-0.234796 -0.513022 0.175894
0.485693 -0.237535 0.166514
-0.505245 -0.236247 0.181251
-0.214956 0.150683 0.501637
-0.234353 0.174603 -0.496776
-0.236388 0.491632 0.195531
-0.225403 -0.485542 0.168896
0.518084 -0.214553 0.183476
-0.497591 -0.242108 0.183785
-0.236321 0.174452 0.493092
-0.22978 0.176705 -0.500064
-0.23139 0.512848 0.184039
-0.221654 -0.505252 0.183625
0.502586 -0.229896 0.168934
-0.489538 -0.222321 0.185065
-0.228257 0.203379 0.507585
-0.236673 0.198342 -0.488413
-0.228 0.499163 0.192341
-0.221571 -0.492749 0.177592
0.504146 -0.219207 0.186358
-0.505585 -0.243616 0.203751
-0.206741 0.209326 0.507544
-0.223364 0.226437 -0.494719
-0.228833 0.507527 0.202995
-0.231479 -0.507253 0.193379
0.486455 -0.229418 0.219302
-0.507025 -0.232189 0.213028
-0.235954 0.226703 0.510898
-0.215764 0.217291 -0.490421
-0.230937 0.504738 0.230627
-0.232429 -0.511652 0.220316
0.497351 -0.230612 0.214592
-0.50024 -0.220139 0.211176
-0.223552 0.226824 0.502124
-0.232053 0.22953 -0.494571
-0.212559 0.516323 0.2363
-0.228538 -0.501432 0.225553
0.49731 -0.23674 0.232528
-0.515803 -0.22881 0.237666
-0.213966 0.249815 0.495762
-0.230048 0.228873 -0.484347
-0.21818 0.475583 0.243746
-0.23277 -0.482528 0.241842
0.503065 -0.22516 0.239374
-0.506065 -0.23308 0.250741
-0.223208 0.247732 0.492163
-0.212023 0.249596 -0.498946
-0.219993 0.48883 0.247818
-0.22926 -0.498791 0.24161
0.504615 -0.216358 0.252546
-0.512985 -0.228823 0.256387
-0.248812 0.250327 0.50301
-0.221099 0.256191 -0.491208
-0.229775 0.485179 0.258354
-0.225521 -0.477392 0.274026
0.50399 -0.229493 0.246176
-0.475478 -0.220228 0.258158
-0.232615 0.273091 0.498155
-0.227746 0.270869 -0.484466
-0.229055 0.510841 0.250817
-0.212893 -0.499573 0.279882
0.506062 -0.22823 0.264382
-0.501838 -0.235404 0.264174
-0.231349 0.269087 0.51642
-0.236608 0.258863 -0.486671
-0.225605 0.500462 0.268647
-0.229522 -0.504245 0.301635
0.501913 -0.220172 0.283741
-0.495212 -0.241292 0.276724
-0.232733 0.274434 0.502017
-0.226131 0.302528 -0.5142
-0.21901 0.496068 0.281063
-0.225815 -0.510849 0.282313
0.50361 -0.219425 0.294572
-0.509051 -0.228123 0.307967
-0.226956 0.300448 0.487422
-0.233144 0.289756 -0.490258
-0.223961 0.490056 0.286231
-0.233841 -0.498438 0.293254
0.485488 -0.226121 0.300164
-0.489515 -0.242867 0.28029
-0.232956 0.311423 0.507076
-0.24165 0.301659 -0.509282
-0.224345 0.489454 0.303925
-0.228655 -0.491243 0.306454
0.517833 -0.235688 0.321467
-0.48687 -0.229114 0.296365
-0.232909 0.308816 0.490085
-0.223936 0.307278 -0.497421
-0.231434 0.498639 0.310784
-0.214786 -0.493326 0.310037
0.510975 -0.228525 0.31754
-0.504227 -0.227014 0.326436
-0.225258 0.331963 0.498805
-0.215645 0.323396 -0.507907
-0.238117 0.478845 0.329218
-0.222253 -0.504931 0.333134
0.491792 -0.21697 0.312096
-0.482438 -0.22502 0.343297
-0.222799 0.323315 0.504851
-0.226364 0.356421 -0.490032
-0.21517 0.503159 0.328882
-0.239248 -0.478479 0.338518
0.505737 -0.237479 0.34244
-0.498697 -0.237762 0.327594
-0.22485 0.352735 0.504899
-0.228665 0.356466 -0.495228
-0.216844 0.503825 0.33298
-0.219034 -0.495229 0.360583
0.512634 -0.234931 0.34356
-0.494815 -0.225542 0.341558
-0.243549 0.350954 0.511032
-0.215279 0.374954 -0.492755
-0.229103 0.494507 0.361847
-0.203078 -0.495091 0.372656
0.475681 -0.218842 0.337159
-0.502361 -0.228959 0.354604
-0.226682 0.352008 0.504183
-0.237487 0.368658 -0.494354
-0.222723 0.486485 0.354401
-0.217798 -0.520684 0.369309
0.501171 -0.22803 0.347447
-0.495117 -0.234819 0.373138
-0.231502 0.384644 0.494255
-0.198679 0.373558 -0.491818
-0.217024 0.491777 0.370951
-0.216548 -0.489784 0.377399
0.51358 -0.224132 0.373996
-0.489344 -0.216936 0.389681
-0.215058 0.394644 0.510305
-0.245836 0.391587 -0.491862
-0.226563 0.498238 0.391821
-0.235323 -0.496012 0.385988
0.493008 -0.241092 0.386204
-0.500915 -0.225476 0.38151
-0.225818 0.405365 0.502162
-0.22554 0.399716 -0.51497
-0.223471 0.507127 0.401029
-0.228934 -0.490296 0.40107
0.499242 -0.224364 0.395591
-0.500264 -0.212392 0.412505
-0.227943 0.409681 0.49403
-0.21755 0.415048 -0.501171
-0.227251 0.498898 0.415023
-0.237993 -0.509885 0.413415
0.498584 -0.232214 0.408316
-0.486798 -0.218818 0.423252
-0.219242 0.419159 0.500426
-0.21977 0.412217 -0.503966
-0.252116 0.479482 0.40407
-0.235801 -0.500088 0.412489
0.502773 -0.228976 0.419798
-0.495715 -0.236929 0.420774
-0.219977 0.439677 0.501978
-0.205338 0.442505 -0.486574
-0.220879 0.493018 0.431832
-0.229633 -0.517058 0.432159
0.512877 -0.224926 0.434009
-0.501909 -0.224094 0.417871
-0.214595 0.451379 0.486637
-0.234904 0.437433 -0.482214
-0.234112 0.510822 0.437071
-0.247343 -0.487112 0.440782
0.497682 -0.246549 0.430456
-0.502253 -0.234357 0.458336
-0.226238 0.441209 0.514415
-0.215397 0.44815 -0.518123
-0.228741 0.500125 0.448341
-0.236313 -0.499522 0.463142
0.516978 -0.231057 0.436104
-0.5028 -0.236723 0.4409
-0.222013 0.476115 0.516111
-0.224659 0.454494 -0.516626
-0.23615 0.502464 0.457649
-0.221319 -0.500157 0.451887
0.513481 -0.225374 0.4429
-0.47922 -0.228971 0.459466
-0.228304 0.469472 0.504549
-0.226534 0.479173 -0.506721
-0.228895 0.504322 0.4684
-0.218862 -0.499841 0.467324
0.506212 -0.219663 0.462634
-0.486188 -0.238423 0.473363
-0.22845 0.504102 0.518548
-0.224876 0.472062 -0.498484
-0.239038 0.495124 0.480442
-0.226097 -0.487179 0.482048
0.491784 -0.235863 0.467919
-0.499809 -0.217649 0.476103
-0.212228 0.478339 0.497544
-0.239723 0.485387 -0.509995
-0.226316 0.516587 0.495602
-0.22564 -0.508207 0.49545
0.489633 -0.214226 0.49608
-0.507576 -0.221937 0.482123
-0.225728 0.507661 0.521356
-0.223424 0.489547 -0.500572
-0.224793 0.515988 0.514146
-0.214483 -0.492567 0.503289
0.492151 -0.22711 0.495226
-0.520065 -0.217594 0.498702
-0.22694 -0.487795 0.502512
-0.213808 -0.503272 -0.508393
-0.224897 0.511457 -0.499844
-0.221149 -0.507709 -0.496703
0.509041 -0.20548 -0.501249
-0.488988 -0.220489 -0.502024
-0.225454 -0.481662 0.489537
-0.197343 -0.482732 -0.514621
-0.230884 0.493663 -0.490233
-0.200262 -0.499727 -0.483841
0.495861 -0.209763 -0.487808
-0.500217 -0.221669 -0.491498
-0.215486 -0.487289 0.50935
-0.222215 -0.471925 -0.498337
-0.230524 0.519774 -0.473753
-0.224405 -0.495165 -0.474377
0.488871 -0.21791 -0.477383
-0.500589 -0.220472 -0.451974
-0.208336 -0.465618 0.495414
-0.217931 -0.485956 -0.495116
-0.237478 0.495909 -0.483267
-0.21576 -0.492292 -0.460724
0.511681 -0.209401 -0.473744
-0.48684 -0.215128 -0.447273
-0.207804 -0.463946 0.481412
-0.228593 -0.457653 -0.500863
-0.232369 0.510741 -0.474208
-0.219316 -0.474234 -0.457848
0.495753 -0.223571 -0.454765
-0.515278 -0.205788 -0.460084
-0.227203 -0.442798 0.493492
-0.226169 -0.432464 -0.505951
-0.223562 0.502659 -0.430379
-0.205995 -0.50613 -0.454605
0.518768 -0.236641 -0.446595
-0.510779 -0.201953 -0.446239
-0.195871 -0.437704 0.498718
-0.20815 -0.440158 -0.507575
-0.229769 0.512892 -0.452447
-0.22325 -0.493925 -0.432932
0.503297 -0.208132 -0.429229
-0.501376 -0.223821 -0.452724
-0.21577 -0.418469 0.512325
-0.210967 -0.43569 -0.506783
-0.23928 0.486538 -0.429444
-0.226421 -0.506767 -0.419576
0.48172 -0.205546 -0.41965
-0.493734 -0.217296 -0.434506
-0.21868 -0.410235 0.498969
-0.228937 -0.424573 -0.478521
-0.201729 0.471767 -0.435912
-0.224085 -0.494799 -0.404783
0.474223 -0.215661 -0.39431
-0.487744 -0.220703 -0.417916
-0.2037 -0.405839 0.496936
-0.201561 -0.418349 -0.518738
-0.206385 0.49416 -0.415668
-0.226626 -0.49811 -0.403248
0.496337 -0.212967 -0.402385
-0.497375 -0.199091 -0.429101
-0.218283 -0.395012 0.505263
-0.218243 -0.40215 -0.512528
-0.21611 0.496731 -0.396281
-0.228589 -0.50265 -0.387529
0.501262 -0.207712 -0.407251
-0.5011 -0.201177 -0.409977
-0.215998 -0.382487 0.5051
-0.226572 -0.376089 -0.500693
-0.212214 0.52305 -0.392476
-0.215029 -0.510335 -0.393736
0.496418 -0.208849 -0.387645
-0.493006 -0.225511 -0.393879
-0.215504 -0.366865 0.508538
-0.220268 -0.3722 -0.494321
-0.190334 0.50694 -0.391833
-0.224252 -0.522808 -0.383923
0.49984 -0.207578 -0.376803
-0.510895 -0.211079 -0.385486
-0.204939 -0.378982 0.508819
-0.224971 -0.373488 -0.500774
-0.220043 0.500998 -0.370567
-0.223098 -0.496738 -0.367545
0.500833 -0.208865 -0.378702
-0.50361 -0.220845 -0.370835
-0.218558 -0.35878 0.491552
-0.216087 -0.36579 -0.493946
-0.220171 0.500005 -0.350866
-0.242383 -0.518636 -0.351642
0.4904 -0.207938 -0.351184
-0.475939 -0.230669 -0.33781
-0.214293 -0.341792 0.504311
-0.23314 -0.334632 -0.488868
-0.202239 0.513686 -0.348998
-0.216386 -0.498852 -0.347281
0.49749 -0.229306 -0.352958
-0.500369 -0.215545 -0.340961
-0.206646 -0.354842 0.487555
-0.206763 -0.343097 -0.505904
-0.209858 0.507502 -0.353908
-0.223994 -0.493656 -0.327884
0.498373 -0.217361 -0.338697
-0.510871 -0.218818 -0.340562
-0.229363 -0.336474 0.501084
-0.199387 -0.321254 -0.487278
-0.207911 0.505607 -0.335175
-0.222807 -0.497917 -0.319674
0.504877 -0.21849 -0.337357
-0.495403 -0.204103 -0.333114
-0.212273 -0.338405 0.509838
-0.237223 -0.326514 -0.512873
-0.240997 0.520416 -0.3107
-0.221619 -0.515955 -0.329183
0.514037 -0.227215 -0.31836
-0.507416 -0.22194 -0.313196
-0.212484 -0.318599 0.497183
-0.230019 -0.30742 -0.490122
-0.212719 0.508549 -0.305997
-0.214615 -0.495258 -0.310526
0.506356 -0.210752 -0.302785
-0.495558 -0.202303 -0.294491
-0.230961 -0.310988 0.514399
-0.202989 -0.307337 -0.5018
-0.204102 0.478706 -0.294633
-0.225584 -0.478782 -0.314731
0.496665 -0.211256 -0.296705
-0.491133 -0.22812 -0.283815
-0.214109 -0.292438 0.484992
-0.216817 -0.307658 -0.49564
-0.226692 0.512016 -0.297216
-0.211678 -0.490563 -0.283183
0.495336 -0.222539 -0.283812
-0.496505 -0.212435 -0.274115
-0.230649 -0.280938 0.508167
-0.217648 -0.269572 -0.496442
-0.218569 0.511448 -0.275286
-0.211347 -0.494135 -0.2707
0.476115 -0.220265 -0.286253
-0.505811 -0.232177 -0.278234
-0.235762 -0.254602 0.50189
-0.220349 -0.270734 -0.483352
-0.22117 0.512414 -0.264033
-0.224407 -0.502155 -0.268127
0.498498 -0.219633 -0.264273
-0.490658 -0.240746 -0.273702
-0.216538 -0.270943 0.500548
-0.225979 -0.244973 -0.486727
-0.217559 0.501574 -0.25292
-0.225508 -0.513428 -0.26262
0.511093 -0.20886 -0.262583
-0.493809 -0.227275 -0.27851
-0.21896 -0.254908 0.506634
-0.231385 -0.232015 -0.49198
-0.206319 0.496946 -0.245443
-0.219152 -0.50604 -0.248957
0.513282 -0.203072 -0.250903
-0.508527 -0.213938 -0.235471
-0.227341 -0.241281 0.485934
-0.191768 -0.21352 -0.488172
-0.22156 0.503622 -0.236754
-0.227729 -0.494915 -0.232037
0.500637 -0.216251 -0.253616
-0.492733 -0.218216 -0.242085
-0.233586 -0.233292 0.513022
-0.223962 -0.235886 -0.496613
-0.224794 0.509008 -0.236321
-0.213618 -0.521705 -0.247889
0.511519 -0.217694 -0.251653
-0.509985 -0.226663 -0.203002
-0.221452 -0.204884 0.505176
-0.204276 -0.239623 -0.495363
-0.193642 0.511126 -0.206459
-0.220005 -0.511432 -0.193596
0.50769 -0.216133 -0.228036
-0.505196 -0.224888 -0.215614
-0.212851 -0.209969 0.51031
-0.234756 -0.207118 -0.485742
-0.200561 0.489261 -0.195454
-0.209725 -0.49828 -0.214677
0.507468 -0.222548 -0.200199
-0.512237 -0.22281 -0.208786
-0.232718 -0.197859 0.494432
-0.221302 -0.20715 -0.509452
-0.225562 0.510756 -0.192846
-0.208111 -0.500879 -0.194499
0.50762 -0.210392 -0.19047
-0.502393 -0.237849 -0.202519
-0.215288 -0.185952 0.50544
-0.206756 -0.157021 -0.500247
-0.217514 0.478186 -0.188503
-0.220044 -0.496484 -0.182051
0.51076 -0.217195 -0.170716
-0.513012 -0.221473 -0.196857
-0.238776 -0.163737 0.51568
-0.225497 -0.170779 -0.509958
-0.228497 0.489232 -0.168839
-0.216306 -0.497519 -0.169276
0.501793 -0.219117 -0.188928
-0.480056 -0.217982 -0.188851
-0.217032 -0.146516 0.490081
-0.232486 -0.178475 -0.529323
-0.223139 0.504055 -0.176636
-0.218634 -0.496164 -0.177905
0.486606 -0.216848 -0.172429
-0.492097 -0.200781 -0.171299
-0.215484 -0.160063 0.492353
-0.229038 -0.151905 -0.502223
-0.218018 0.505987 -0.170508
-0.198372 -0.487473 -0.160928
0.509213 -0.22365 -0.164
-0.486598 -0.210663 -0.14937
-0.226806 -0.143215 0.500658
-0.207371 -0.139223 -0.504352
-0.222826 0.487882 -0.133576
-0.213709 -0.476346 -0.151908
0.505777 -0.21308 -0.138568
-0.507322 -0.216212 -0.151645
-0.215661 -0.130321 0.484123
-0.20939 -0.122483 -0.495743
-0.221491 0.497032 -0.132931
-0.220275 -0.503566 -0.131494
0.504045 -0.207191 -0.130687
-0.512274 -0.21911 -0.121838
-0.205384 -0.111758 0.506199
-0.220696 -0.141315 -0.485486
-0.213093 0.487329 -0.121714
-0.209892 -0.48498 -0.120642
0.511638 -0.216363 -0.111189
-0.49651 -0.214609 -0.126633
-0.217138 -0.112975 0.505036
-0.219069 -0.122924 -0.50055
-0.2053 0.504405 -0.108976
-0.232154 -0.483172 -0.10382
0.503782 -0.205645 -0.121207
-0.48834 -0.213783 -0.118507
-0.209057 -0.109378 0.511089
-0.229238 -0.110057 -0.482914
-0.218522 0.494981 -0.118318
-0.196895 -0.485069 -0.0885108
0.479306 -0.217711 -0.101654
-0.4824 -0.197623 -0.0822503
-0.213146 -0.100349 0.503235
-0.217664 -0.102265 -0.512687
-0.219609 0.51758 -0.0877191
-0.21471 -0.502129 -0.0972716
0.485831 -0.209536 -0.114134
-0.492865 -0.207745 -0.0966593
-0.205978 -0.0738461 0.511623
-0.209718 -0.0761107 -0.503272
-0.229057 0.510442 -0.0748403
-0.218176 -0.501546 -0.0818742
0.510283 -0.211736 -0.0983334
-0.502366 -0.207138 -0.0886833
-0.215727 -0.0817208 0.494828
-0.205096 -0.0685381 -0.478879
-0.211029 0.484807 -0.0742815
-0.2154 -0.491528 -0.0674758
0.493486 -0.226891 -0.0582949
-0.497135 -0.213291 -0.0705415
-0.226593 -0.0482471 0.487952
-0.22297 -0.0555683 -0.499933
-0.206283 0.49914 -0.0654498
-0.237533 -0.489071 -0.0675132
0.50751 -0.213162 -0.0660132
-0.506668 -0.214424 -0.0576794
-0.212033 -0.0501148 0.500061
-0.213775 -0.0510748 -0.513047
-0.229253 0.509309 -0.0354391
-0.23054 -0.508594 -0.0500465
0.502221 -0.215692 -0.0744385
-0.498818 -0.228205 -0.0641988
-0.220691 -0.0415252 0.509393
-0.195928 -0.0584866 -0.489408
-0.214079 0.511254 -0.0482247
-0.214991 -0.482166 -0.0537747
0.491911 -0.215983 -0.0262541
-0.510663 -0.203497 -0.0623336
-0.221535 -0.0258991 0.510274
-0.225184 -0.0507759 -0.503322
-0.205091 0.489392 -0.0464483
-0.216262 -0.491734 -0.0159019
0.503209 -0.211924 -0.0365002
-0.478587 -0.210343 -0.0272763
-0.226601 -0.0186349 0.491798
-0.233169 -0.0355844 -0.501468
-0.205314 0.505415 -0.0248027
-0.187135 -0.478086 -0.0305626
0.496556 -0.235367 -0.0325462
-0.50816 -0.230365 -0.0246296
-0.231329 -0.015491 0.495073
-0.216558 -0.0195246 -0.513778
-0.212063 0.485993 -0.0244012
-0.203967 -0.502473 -0.0238081
0.501088 -0.218402 -0.00777687
-0.483381 -0.198353 -0.0259143
-0.221962 -0.00022007 0.508809
-0.236012 -0.00298329 -0.488913
-0.238154 0.496517 0.0210751
-0.232168 -0.508599 -0.0120492
0.496173 -0.214107 -0.0138825
-0.499775 -0.212011 0.0202143
-0.221362 -0.00738163 0.499628
-0.224276 0.00609678 -0.506967
-0.205019 0.500473 -0.0105719
-0.216176 -0.506026 -0.0127277
0.485835 -0.214891 0.00868303
-0.486103 -0.206455 0.0135431
-0.205182 0.0208462 0.503039
-0.219398 0.0116994 -0.505265
-0.20226 0.494865 0.0208589
-0.214962 -0.509538 0.0163761
0.50514 -0.198933 0.00799468
-0.503881 -0.226414 -0.00379744
-0.2171 0.0249727 0.493078
-0.230107 0.0290749 -0.512908
-0.204463 0.498446 0.0119066
-0.22546 -0.503315 0.0104364
0.483138 -0.217108 0.0355597
-0.502347 -0.229055 0.0187379
-0.22975 0.0515106 0.494814
-0.213635 0.013642 -0.503873
-0.224245 0.503966 0.0320851
-0.212325 -0.490562 0.0449971
0.504266 -0.228684 0.0266419
-0.488277 -0.214355 0.0299043
-0.217174 0.0500826 0.498824
-0.208942 0.0369495 -0.507651
-0.223846 0.515355 0.0350852
-0.220733 -0.491625 0.0334905
0.494436 -0.215959 0.0553163
-0.5024 -0.224376 0.0387541
-0.222996 0.0548739 0.492719
-0.204884 0.0482235 -0.5073
-0.212713 0.498748 0.0626168
-0.216154 -0.498567 0.0491598
0.49752 -0.20342 0.0690801
-0.50179 -0.208064 0.0484755
-0.222854 0.0568452 0.48897
-0.206351 0.0697162 -0.496435
-0.221871 0.480817 0.0615126
-0.206532 -0.505392 0.0638742
0.484717 -0.24125 0.0596982
-0.503166 -0.218146 0.0623454
-0.227858 0.0714207 0.484486
-0.228451 0.0770561 -0.502017
-0.225768 0.48283 0.0719978
-0.216578 -0.481387 0.0815719
0.501515 -0.229866 0.0635323
-0.508658 -0.218901 0.0802379
-0.211046 0.0816449 0.495302
-0.225907 0.0827667 -0.506719
-0.21892 0.498412 0.118186
-0.223671 -0.515138 0.087165
0.505457 -0.217486 0.0891707
-0.498753 -0.212332 0.0883332
-0.221446 0.108692 0.500512
-0.219155 0.0998424 -0.513171
-0.224387 0.507753 0.0738179
-0.215117 -0.48071 0.0990972
0.514909 -0.22817 0.0909584
-0.504595 -0.227448 0.0987494
-0.198246 0.104938 0.502795
-0.222192 0.109312 -0.506522
-0.223621 0.490006 0.105629
-0.21437 -0.49757 0.119737
0.479141 -0.243081 0.126601
-0.509628 -0.232124 0.117625
-0.224691 0.111134 0.498604
-0.182555 0.117189 -0.497632
-0.210128 0.50606 0.109273
-0.211781 -0.496502 0.116884
0.478376 -0.229972 0.109505
-0.498277 -0.211958 0.108945
-0.227626 0.11851 0.512337
-0.217102 0.127186 -0.480102
-0.23068 0.513267 0.125932
-0.229411 -0.502334 0.133913
0.485214 -0.213355 0.133441
-0.503254 -0.21567 0.140444
-0.228741 0.11953 0.508112
-0.221325 0.165254 -0.499737
-0.196213 0.504817 0.145197
-0.196991 -0.502816 0.130825
0.494883 -0.229446 0.133915
-0.507537 -0.208953 0.156686
-0.209124 0.142875 0.487743
-0.207193 0.152319 -0.49747
-0.209771 0.49987 0.155534
-0.22178 -0.490932 0.162566
0.503756 -0.218509 0.150186
-0.495465 -0.234135 0.149432
-0.215085 0.166572 0.493963
-0.238538 0.1449 -0.512633
-0.230972 0.483152 0.140939
-0.220814 -0.519666 0.151048
0.49391 -0.221567 0.155973
-0.494695 -0.22714 0.158596
-0.217287 0.178022 0.51625
-0.204056 0.154484 -0.510959
-0.21198 0.513981 0.170717
-0.220206 -0.495238 0.157657
0.51189 -0.21102 0.132688
-0.505676 -0.210308 0.170604
-0.207683 0.185204 0.485764
-0.217227 0.169981 -0.485971
-0.209579 0.481032 0.176833
-0.202315 -0.500428 0.171301
0.48741 -0.222504 0.173079
-0.479905 -0.205337 0.189554
-0.203959 0.189212 0.489792
-0.208079 0.205977 -0.482346
-0.215847 0.504399 0.184376
-0.222756 -0.474028 0.187552
0.500727 -0.22687 0.182773
-0.499189 -0.189374 0.181147
-0.214219 0.183492 0.474726
-0.216491 0.213253 -0.497816
-0.231535 0.508767 0.199623
-0.206358 -0.492677 0.191805
0.51409 -0.205718 0.189018
-0.491684 -0.222129 0.184505
-0.204051 0.201276 0.495294
-0.21686 0.209837 -0.511702
-0.20208 0.493034 0.197084
-0.208945 -0.482079 0.203148
0.515036 -0.224113 0.213199
-0.49766 -0.217209 0.188358
-0.232078 0.215152 0.494183
-0.240706 0.219524 -0.505294
-0.195283 0.49606 0.207416
-0.211081 -0.486424 0.196329
0.497602 -0.212412 0.210901
-0.499236 -0.210355 0.237015
-0.194315 0.236852 0.490483
-0.206868 0.218454 -0.499054
-0.228747 0.480268 0.220044
-0.208781 -0.478826 0.21929
0.483382 -0.206092 0.209032
-0.501808 -0.213481 0.236077
-0.207336 0.229069 0.506051
-0.209899 0.240121 -0.499691
-0.22283 0.496847 0.256437
-0.207753 -0.491498 0.250857
0.485942 -0.200615 0.22085
-0.494297 -0.222779 0.2304
-0.224587 0.241388 0.516795
-0.21771 0.252812 -0.48701
-0.20794 0.486285 0.2571
-0.218204 -0.495911 0.246993
0.486767 -0.201852 0.251326
-0.510354 -0.229226 0.240058
-0.228488 0.260368 0.496384
-0.236264 0.257805 -0.525111
-0.22634 0.494811 0.250935
-0.228238 -0.516534 0.255973
0.498012 -0.221598 0.269026
-0.505257 -0.19781 0.236769
-0.231379 0.2488 0.508919
-0.213675 0.257565 -0.511102
-0.227143 0.489174 0.27927
-0.220486 -0.504916 0.269361
0.505157 -0.212161 0.264678
-0.507956 -0.202957 0.265428
-0.215183 0.276359 0.507968
-0.22688 0.272453 -0.49403
-0.21 0.486538 0.294108
-0.22638 -0.488832 0.262235
0.497192 -0.210647 0.278018
-0.473324 -0.232138 0.282216
-0.230864 0.305847 0.495616
-0.212983 0.287295 -0.513587
-0.211285 0.493373 0.281661
-0.216703 -0.500378 0.288498
0.50357 -0.208698 0.294959
-0.503962 -0.215274 0.280336
-0.213977 0.304465 0.514271
-0.232079 0.295726 -0.489459
-0.210202 0.507973 0.297691
-0.220597 -0.49903 0.29875
0.489303 -0.218368 0.295097
-0.493233 -0.215669 0.2983
-0.217878 0.298325 0.502523
-0.227645 0.312104 -0.515031
-0.218242 0.497986 0.303986
-0.211869 -0.505025 0.307244
0.495486 -0.208676 0.314414
-0.515682 -0.229144 0.305797
-0.220702 0.328133 0.50213
-0.230138 0.330777 -0.499695
-0.222495 0.511561 0.313612
-0.193486 -0.494872 0.316676
0.516095 -0.222986 0.305791
-0.495203 -0.201227 0.306319
-0.227321 0.334877 0.502687
-0.223774 0.331698 -0.508669
-0.206258 0.504326 0.336587
-0.217734 -0.500342 0.326828
0.504808 -0.201408 0.337256
-0.505818 -0.214917 0.317963
-0.204712 0.338299 0.499062
-0.216096 0.342383 -0.520372
-0.220788 0.5029 0.320466
-0.220707 -0.498546 0.335611
0.512868 -0.229507 0.328174
-0.499978 -0.224543 0.344071
-0.210863 0.352567 0.503332
-0.2065 0.343672 -0.506724
-0.212097 0.4944 0.335951
-0.218055 -0.500239 0.360659
0.498134 -0.228816 0.354616
-0.501847 -0.210438 0.339374
-0.206237 0.349048 0.509938
-0.2177 0.353657 -0.503014
-0.219327 0.489499 0.378622
-0.210322 -0.495318 0.365759
0.502925 -0.209337 0.347206
-0.480665 -0.207518 0.364881
-0.203025 0.370576 0.489424
-0.208497 0.373328 -0.498935
-0.2057 0.500716 0.374284
-0.236795 -0.499642 0.358354
0.485903 -0.212186 0.38268
-0.507953 -0.224552 0.371554
-0.200017 0.379441 0.493357
-0.221655 0.393914 -0.495447
-0.237107 0.504965 0.377287
-0.216218 -0.490418 0.389261
0.500546 -0.212548 0.386436
-0.488713 -0.199947 0.386485
-0.221287 0.378341 0.495593
-0.226276 0.382336 -0.489421
-0.215717 0.508161 0.405261
-0.228548 -0.509111 0.379791
0.504798 -0.231888 0.398019
-0.504113 -0.199505 0.380548
-0.19473 0.395624 0.506298
-0.210391 0.379749 -0.503586
-0.215863 0.514722 0.413859
-0.233781 -0.501349 0.402911
0.466263 -0.205305 0.382285
-0.502382 -0.216726 0.405642
-0.217104 0.377937 0.497219
-0.212665 0.399798 -0.48249
-0.217426 0.489044 0.413259
-0.223393 -0.50416 0.375143
0.495963 -0.215978 0.417245
-0.506216 -0.214281 0.408038
-0.217153 0.407006 0.503455
-0.2052 0.419898 -0.492806
-0.227621 0.495113 0.411636
-0.212269 -0.504723 0.414171
0.476557 -0.219949 0.421086
-0.502366 -0.221971 0.415377
-0.225507 0.426172 0.499435
-0.217396 0.435994 -0.499248
-0.217781 0.485366 0.437163
-0.210612 -0.494185 0.427385
0.513198 -0.227653 0.417697
-0.499165 -0.231614 0.451559
-0.224761 0.434724 0.503114
-0.227 0.44222 -0.48604
-0.218505 0.51072 0.458046
-0.199292 -0.492302 0.455005
0.492274 -0.208541 0.45021
-0.499797 -0.214195 0.433484
-0.226045 0.452193 0.501848
-0.232066 0.46853 -0.49757
-0.222389 0.50418 0.449177
-0.227944 -0.509082 0.473475
0.510847 -0.226368 0.464935
-0.495807 -0.229953 0.467678
-0.212211 0.450921 0.495434
-0.207873 0.463657 -0.495505
-0.222306 0.512605 0.473782
-0.2039 -0.486528 0.464339
0.492052 -0.216109 0.468115
-0.489926 -0.210507 0.450873
-0.202303 0.465591 0.501444
-0.219517 0.4675 -0.494686
-0.202839 0.500404 0.468639
-0.193977 -0.490893 0.48185
0.494739 -0.200294 0.480595
-0.48934 -0.220286 0.463892
-0.21928 0.464687 0.501576
-0.238307 0.485782 -0.499987
-0.207121 0.517808 0.451254
-0.210057 -0.494828 0.500507
0.483752 -0.225661 0.467935
-0.499869 -0.217647 0.488365
-0.222261 0.467686 0.510518
-0.228838 0.474997 -0.494641
-0.223659 0.493533 0.501405
-0.224859 -0.487663 0.498735
0.503222 -0.223471 0.486405
-0.514117 -0.213678 0.500974
-0.220175 0.504276 0.47954
-0.215029 0.514222 -0.50366
-0.220567 0.498282 0.492812
-0.212209 -0.499961 0.499089
0.505448 -0.220296 0.487734
-0.493447 -0.221502 0.517285
-0.220791 -0.528126 0.498541
-0.203026 -0.490626 -0.499194
-0.19771 0.505668 -0.518887
-0.214262 -0.490373 -0.494695
0.49282 -0.206016 -0.520999
-0.503196 -0.210244 -0.50254
-0.203681 -0.509155 0.505796
-0.228021 -0.489214 -0.50565
-0.213592 0.499394 -0.487323
-0.191565 -0.50108 -0.488448
0.521245 -0.213495 -0.485389
-0.504745 -0.232794 -0.497013
-0.197643 -0.493545 0.51013
-0.209782 -0.484932 -0.495886
-0.210379 0.504441 -0.466694
-0.189521 -0.500972 -0.482943
0.504751 -0.209973 -0.479316
-0.5075 -0.20823 -0.489438
-0.204292 -0.465051 0.487426
-0.21741 -0.458039 -0.504678
-0.196556 0.482093 -0.478028
-0.200351 -0.500162 -0.456325
0.498063 -0.217914 -0.468406
-0.503339 -0.218286 -0.454203
-0.197128 -0.465368 0.510879
-0.215015 -0.468326 -0.513218
-0.207498 0.493436 -0.457984
-0.200554 -0.514489 -0.467462
0.514436 -0.21049 -0.47286
-0.501414 -0.198263 -0.462385
-0.209357 -0.459352 0.486192
-0.194812 -0.458179 -0.510211
-0.191857 0.494178 -0.457305
-0.191057 -0.508218 -0.460158
0.50625 -0.227054 -0.445537
-0.510489 -0.215368 -0.435525
-0.212367 -0.437586 0.494097
-0.202556 -0.454011 -0.514498
-0.204375 0.511881 -0.437646
-0.213193 -0.502262 -0.435029
0.496004 -0.207113 -0.440687
-0.486574 -0.194514 -0.450622
-0.215064 -0.418737 0.496395
-0.21141 -0.449077 -0.510622
-0.19452 0.507214 -0.420819
-0.199421 -0.516388 -0.43444
0.500094 -0.207503 -0.415892
-0.492962 -0.201402 -0.423643
-0.201077 -0.420564 0.505516
-0.21245 -0.422104 -0.491266
-0.226062 0.481298 -0.40105
-0.215468 -0.49627 -0.424869
0.514569 -0.218707 -0.423853
-0.511436 -0.210528 -0.420724
-0.191553 -0.420383 0.50117
-0.213494 -0.413777 -0.50839
-0.209126 0.493635 -0.406868
-0.209531 -0.511106 -0.408105
0.482206 -0.199527 -0.415725
-0.510633 -0.219224 -0.390033
-0.204653 -0.403974 0.504939
-0.197956 -0.405135 -0.520808
-0.206466 0.482231 -0.413404
-0.202617 -0.494541 -0.394908
0.506465 -0.201303 -0.403732
-0.493799 -0.220242 -0.406261
-0.207121 -0.378272 0.500285
-0.199393 -0.394258 -0.48277
-0.229329 0.495841 -0.378761
-0.201111 -0.4921 -0.38561
0.500698 -0.23245 -0.378245
-0.493552 -0.196984 -0.397755
-0.202891 -0.375064 0.491715
-0.203456 -0.376588 -0.523992
-0.229731 0.489279 -0.375029
-0.2023 -0.498259 -0.376397
0.4985 -0.211528 -0.395203
-0.51317 -0.219704 -0.394121
-0.207298 -0.363845 0.498561
-0.208528 -0.357424 -0.517845
-0.193926 0.506939 -0.363528
-0.202146 -0.502354 -0.376804
0.482933 -0.210176 -0.363702
-0.521757 -0.190913 -0.379325
-0.193047 -0.358756 0.499804
-0.220898 -0.353108 -0.507738
-0.213705 0.514937 -0.355055
-0.211845 -0.487274 -0.355463
0.492501 -0.223354 -0.348019
-0.498364 -0.218633 -0.331572
-0.20132 -0.335607 0.509593
-0.221659 -0.348034 -0.498281
-0.194498 0.518021 -0.3484
-0.207363 -0.491879 -0.342469
0.513092 -0.199806 -0.33171
-0.498366 -0.194702 -0.338518
-0.207992 -0.325881 0.519155
-0.204006 -0.328727 -0.4822
-0.197165 0.489363 -0.323514
-0.219789 -0.516461 -0.324404
0.506884 -0.202456 -0.355257
-0.494284 -0.213457 -0.352587
-0.193465 -0.343562 0.497818
-0.219569 -0.321205 -0.494076
-0.225108 0.503962 -0.344508
-0.210379 -0.508031 -0.316099
0.516809 -0.208011 -0.333412
-0.509199 -0.233201 -0.331216
-0.206918 -0.323908 0.496363
-0.215084 -0.315307 -0.481217
-0.200141 0.516982 -0.322759
-0.199871 -0.489645 -0.330616
0.498321 -0.205938 -0.327231
-0.501104 -0.194409 -0.299965
-0.213302 -0.291389 0.488009
-0.207107 -0.305799 -0.503679
-0.209806 0.498504 -0.316481
-0.193688 -0.500624 -0.305217
0.515882 -0.208942 -0.321057
-0.497714 -0.212654 -0.323074
-0.210879 -0.318501 0.527103
-0.21551 -0.299363 -0.492044
-0.227137 0.485989 -0.297121
-0.191514 -0.490631 -0.287154
0.511109 -0.212511 -0.310072
-0.495696 -0.199704 -0.303564
-0.19977 -0.289135 0.500111
-0.194442 -0.292591 -0.493201
-0.213497 0.49603 -0.300994
-0.204283 -0.489269 -0.281053
0.486837 -0.19058 -0.295145
-0.491715 -0.219087 -0.272245
-0.212949 -0.293174 0.493136
-0.213637 -0.268355 -0.499558
-0.216483 0.510906 -0.276789
-0.217409 -0.496962 -0.262445
0.506574 -0.189989 -0.27288
-0.506215 -0.189511 -0.267139
-0.206233 -0.2771 0.475783
-0.202724 -0.284674 -0.499139
-0.218438 0.50602 -0.265719
-0.200649 -0.510641 -0.264381
0.504017 -0.194812 -0.264116
-0.511794 -0.206248 -0.267092
-0.221072 -0.274663 0.513577
-0.22051 -0.262365 -0.50676
-0.193286 0.506365 -0.250466
-0.218695 -0.512157 -0.270495
0.50249 -0.20488 -0.264389
-0.500815 -0.202171 -0.238665
-0.199549 -0.247749 0.520703
-0.215166 -0.250573 -0.503035
-0.197751 0.499798 -0.256319
-0.219659 -0.488753 -0.241974
0.50715 -0.220548 -0.259499
-0.489222 -0.23338 -0.240973
-0.21765 -0.224775 0.516074
-0.224437 -0.221608 -0.501691
-0.204369 0.496983 -0.244701
-0.185953 -0.513258 -0.239556
0.502402 -0.198463 -0.248276
-0.513966 -0.223161 -0.247061
-0.194732 -0.241515 0.498495
-0.206857 -0.247537 -0.499945
-0.20641 0.502217 -0.231959
-0.221995 -0.494338 -0.229478
0.518504 -0.216792 -0.234362
-0.513694 -0.225294 -0.22027
-0.198258 -0.22206 0.494906
-0.222803 -0.206743 -0.519515
-0.219672 0.495921 -0.226871
-0.194253 -0.494281 -0.208711
0.509522 -0.211253 -0.226464
-0.495691 -0.2148 -0.205401
-0.215137 -0.201315 0.502579
-0.202077 -0.19452 -0.508843
-0.208521 0.501846 -0.215326
-0.222413 -0.49454 -0.209801
0.502244 -0.199622 -0.209083
-0.502612 -0.199348 -0.187878
-0.190965 -0.20429 0.498699
-0.195599 -0.188277 -0.494821
-0.200071 0.497869 -0.203712
-0.196869 -0.49561 -0.196155
0.523579 -0.210217 -0.181335
-0.512803 -0.219993 -0.213743
-0.206971 -0.176108 0.515563
-0.195366 -0.176232 -0.506601
-0.211669 0.490524 -0.174386
-0.211367 -0.501718 -0.183685
0.50597 -0.211101 -0.185339
-0.499637 -0.208337 -0.166433
-0.20384 -0.174905 0.498481
-0.200962 -0.17276 -0.499929
-0.215554 0.503766 -0.172278
-0.189431 -0.500622 -0.177194
0.509146 -0.218454 -0.193456
-0.50457 -0.212133 -0.18555
-0.216273 -0.162375 0.507315
-0.215585 -0.169646 -0.496528
-0.208406 0.495282 -0.151516
-0.194852 -0.477952 -0.154492
0.49838 -0.205196 -0.160362
-0.508053 -0.186996 -0.173879
-0.222832 -0.136655 0.515899
-0.195965 -0.176687 -0.512565
-0.228671 0.487131 -0.13812
-0.197188 -0.504972 -0.13763
0.502155 -0.212183 -0.162348
-0.489883 -0.198642 -0.154136
-0.219046 -0.136785 0.496145
-0.217871 -0.150484 -0.486088
-0.198792 0.48898 -0.147037
-0.191725 -0.48803 -0.141244
0.500015 -0.219119 -0.133854
-0.495957 -0.214154 -0.148294
-0.215109 -0.140606 0.48716
-0.214372 -0.136197 -0.518178
-0.191312 0.503473 -0.136047
-0.211885 -0.509816 -0.152424
0.498983 -0.192621 -0.14874
-0.508683 -0.225146 -0.151024
-0.197787 -0.118821 0.501098
-0.213351 -0.134741 -0.513689
-0.213834 0.494145 -0.126686
-0.21747 -0.4972 -0.134444
0.513669 -0.199998 -0.129378
-0.484628 -0.200406 -0.145274
-0.220241 -0.132175 0.511577
-0.223569 -0.114676 -0.485611
-0.203089 0.487669 -0.106498
-0.196876 -0.514502 -0.129692
0.498588 -0.211979 -0.09762
-0.491377 -0.225883 -0.112795
-0.213077 -0.100811 0.50291
-0.203933 -0.119268 -0.500421
-0.213379 0.498529 -0.0971084
-0.215511 -0.494652 -0.102873
0.487221 -0.202445 -0.102371
-0.514848 -0.190305 -0.114273
-0.209662 -0.106211 0.490039
-0.209048 -0.0987045 -0.501845
-0.216925 0.504673 -0.0962782
-0.208377 -0.517078 -0.0804431
0.499985 -0.192191 -0.105128
-0.496478 -0.194903 -0.0759741
-0.190942 -0.0871267 0.492881
-0.20393 -0.0877445 -0.485733
-0.218911 0.501274 -0.0973661
-0.222313 -0.511438 -0.0899154
0.505423 -0.22454 -0.0927605
-0.507045 -0.20516 -0.103455
-0.22223 -0.0786654 0.4914
-0.221653 -0.0736633 -0.49668
-0.186982 0.509693 -0.0723833
-0.221969 -0.508231 -0.0770461
0.51346 -0.208316 -0.0923519
-0.495744 -0.212045 -0.0712676
-0.20918 -0.0644098 0.521506
-0.201365 -0.0585838 -0.496472
-0.214087 0.522687 -0.0735248
-0.212938 -0.510202 -0.0364348
0.485372 -0.199392 -0.0639142
-0.480054 -0.19616 -0.0451369
-0.212037 -0.0344124 0.506727
-0.211788 -0.0698046 -0.508859
-0.217669 0.496757 -0.0678516
-0.196597 -0.509133 -0.0459035
0.500923 -0.217697 -0.0665916
-0.498795 -0.193182 -0.0623914
-0.208749 -0.062848 0.497385
-0.203932 -0.0650167 -0.493162
-0.204984 0.515743 -0.0422591
-0.202859 -0.497774 -0.0505683
0.491444 -0.205115 -0.0444469
-0.502401 -0.19666 -0.0475838
-0.2082 -0.0411299 0.484651
-0.21941 -0.0354625 -0.499596
-0.213046 0.501257 -0.0367636
-0.222275 -0.501326 -0.0607504
0.487484 -0.202567 -0.0123212
-0.505694 -0.198731 -0.0284005
-0.208338 -0.0358135 0.50749
-0.223318 -0.00615102 -0.496521
-0.224905 0.501776 -0.0149545
-0.200252 -0.488477 -0.0202267
0.495048 -0.220612 -0.0297197
-0.495645 -0.214972 -0.0391402
-0.222732 -0.0103476 0.499199
-0.207265 0.00511608 -0.504995
-0.218874 0.505819 -0.0144702
-0.222297 -0.506613 -0.0268819
0.516366 -0.21661 -0.0268688
-0.508657 -0.195604 -0.0280169
-0.207555 -0.0211353 0.500286
-0.220824 -0.00977527 -0.522131
-0.201363 0.501862 0.00220964
-0.21172 -0.51355 -0.0228621
0.500188 -0.206011 -0.0055122
-0.484418 -0.193783 -0.000884577
-0.202988 0.00325667 0.499256
-0.211295 -0.000622723 -0.490138
-0.211224 0.506571 0.0102474
-0.210269 -0.523045 0.0101189
0.488803 -0.213388 0.012461
-0.496496 -0.204836 0.013376
-0.212249 0.0153769 0.485799
-0.219839 0.0102512 -0.52305
-0.198099 0.497234 0.0245775
-0.206197 -0.498619 0.0180325
0.503796 -0.203041 -0.0141177
-0.504068 -0.209201 0.0174856
-0.196505 0.0198972 0.501158
-0.194784 0.0347508 -0.477719
-0.213577 0.488796 0.0318505
-0.211381 -0.49921 0.0234623
0.487861 -0.193975 0.0415027
-0.499973 -0.22206 0.0398198
-0.201003 0.0353509 0.496621
-0.206213 0.0310242 -0.477603
-0.190409 0.483907 0.0307651
-0.224409 -0.506209 0.026027
0.493584 -0.21801 0.0393788
-0.502779 -0.190989 0.0415828
-0.206956 0.0458574 0.503025
-0.206223 0.0605431 -0.502623
-0.187545 0.500694 0.0509702
-0.213194 -0.509253 0.0479953
0.495404 -0.208247 0.0324445
-0.509808 -0.207184 0.0534645
-0.202441 0.0624556 0.497066
-0.221454 0.0606166 -0.527577
-0.210367 0.52561 0.0580315
-0.210427 -0.49651 0.0549191
0.497178 -0.209348 0.0678019
-0.514215 -0.211111 0.0536789
-0.188621 0.06953 0.502275
-0.203888 0.0552071 -0.492407
-0.209778 0.499852 0.0605712
-0.192233 -0.491313 0.0606848
0.504997 -0.223508 0.067193
-0.501923 -0.214715 0.0631943
-0.206342 0.0921293 0.4939
-0.196498 0.0814792 -0.505453
-0.189589 0.5131 0.0834231
-0.213451 -0.492734 0.0716866
0.504863 -0.208296 0.0775308
-0.505708 -0.209659 0.0667373
-0.209923 0.0756466 0.50681
-0.211232 0.0876631 -0.503282
-0.219951 0.51382 0.0903542
-0.208155 -0.499988 0.0815624
0.508365 -0.216814 0.104306
-0.503537 -0.218185 0.0864412
-0.221368 0.0820055 0.505303
-0.189111 0.0916093 -0.500687
-0.226213 0.479728 0.0838865
-0.213274 -0.507522 0.086779
0.508405 -0.200312 0.118924
-0.507419 -0.218508 0.109113
-0.192343 0.11572 0.50606
-0.208571 0.11814 -0.482501
-0.203686 0.506293 0.107745
-0.210851 -0.493713 0.100741
0.502162 -0.207971 0.104713
-0.500338 -0.188039 0.112089
-0.190763 0.132592 0.521134
-0.201421 0.120245 -0.488397
-0.195366 0.488522 0.104367
-0.204065 -0.496582 0.121085
0.488272 -0.18931 0.115976
-0.520567 -0.211352 0.124446
-0.191842 0.115874 0.506844
-0.201711 0.124735 -0.476186
-0.213919 0.473478 0.115024
-0.22465 -0.512004 0.126063
0.491609 -0.220748 0.131598
-0.50661 -0.209638 0.117161
-0.20168 0.132388 0.513563
-0.214122 0.145552 -0.506281
-0.212908 0.49752 0.136214
-0.19857 -0.513065 0.140421
0.481297 -0.231157 0.136963
-0.502785 -0.21426 0.126688
-0.211648 0.148838 0.487396
-0.198524 0.150924 -0.498509
-0.210868 0.520282 0.145125
-0.201669 -0.5076 0.151355
0.501458 -0.205461 0.143394
-0.496826 -0.211357 0.156098
-0.21789 0.145783 0.501383
-0.204863 0.161341 -0.505574
-0.180563 0.499402 0.1616
-0.207354 -0.492183 0.138083
0.490592 -0.217376 0.162175
-0.489936 -0.205014 0.161716
-0.220499 0.172653 0.506516
-0.215306 0.162075 -0.493829
-0.20806 0.492769 0.160253
-0.218159 -0.476971 0.173874
0.490853 -0.230782 0.173302
-0.506072 -0.20771 0.147454
-0.20327 0.160772 0.495657
-0.197851 0.168827 -0.508735
-0.197991 0.478215 0.176821
-0.210923 -0.495713 0.179515
0.501232 -0.19761 0.186162
-0.47732 -0.205844 0.184184
-0.195727 0.204454 0.500947
-0.207738 0.179677 -0.500495
-0.198841 0.488435 0.191521
-0.211994 -0.492697 0.197421
0.489717 -0.20346 0.180614
-0.483373 -0.201664 0.186291
-0.20603 0.189079 0.479001
-0.223077 0.200526 -0.509153
-0.208019 0.496388 0.213639
-0.220618 -0.488146 0.192221
0.481309 -0.223536 0.195154
-0.512533 -0.208442 0.179263
-0.208235 0.212919 0.485102
-0.197798 0.212416 -0.510216
-0.192328 0.497273 0.198748
-0.215856 -0.493532 0.204319
0.504469 -0.198611 0.195751
-0.488626 -0.234092 0.206774
-0.205819 0.215043 0.488743
-0.215337 0.224538 -0.507848
-0.193914 0.500527 0.216407
-0.207968 -0.490185 0.238597
0.491593 -0.205658 0.207126
-0.49513 -0.206915 0.222116
-0.217274 0.22337 0.49911
-0.19446 0.22999 -0.508653
-0.210845 0.496258 0.225809
-0.208729 -0.516666 0.231253
0.523874 -0.200448 0.234599
-0.497136 -0.218251 0.220858
-0.208729 0.239115 0.508274
-0.196885 0.235226 -0.498436
-0.216472 0.497181 0.23246
-0.198036 -0.496739 0.228103
0.481826 -0.207283 0.219405
-0.48999 -0.207043 0.239495
-0.206884 0.264052 0.523473
-0.19369 0.252077 -0.507416
-0.199128 0.499329 0.240232
-0.186086 -0.494959 0.223493
0.515552 -0.213983 0.250347
-0.512023 -0.22056 0.242532
-0.219893 0.260507 0.499106
-0.190736 0.258098 -0.482959
-0.215072 0.494656 0.246009
-0.217938 -0.514887 0.261025
0.516543 -0.22673 0.266367
-0.488649 -0.21205 0.274072
-0.214895 0.254943 0.495273
-0.212497 0.2538 -0.503921
-0.201288 0.508284 0.280229
-0.202691 -0.479994 0.262736
0.496298 -0.212612 0.262477
-0.487589 -0.213927 0.269605
-0.214879 0.277641 0.506068
-0.198417 0.276426 -0.511771
-0.216851 0.484508 0.275349
-0.202795 -0.493543 0.292304
0.497748 -0.19676 0.262139
-0.513314 -0.209541 0.275661
-0.204261 0.307353 0.502696
-0.215962 0.29808 -0.489329
-0.227197 0.490016 0.282112
-0.214173 -0.510299 0.291265
0.493957 -0.212424 0.293779
-0.506188 -0.204013 0.259085
-0.213145 0.313288 0.49775
-0.203771 0.297624 -0.498096
-0.207806 0.499136 0.30199
-0.203995 -0.502053 0.312973
0.502964 -0.197164 0.307875
-0.473301 -0.211387 0.306034
-0.220101 0.308172 0.493918
-0.203467 0.307435 -0.503961
-0.221251 0.492092 0.304016
-0.182578 -0.49677 0.299897
0.500416 -0.212343 0.309541
-0.52099 -0.187868 0.297497
-0.218905 0.321402 0.503721
-0.198836 0.343384 -0.505464
-0.204302 0.508492 0.316745
-0.191287 -0.485611 0.312266
0.505627 -0.203343 0.308068
-0.494178 -0.211034 0.33281
-0.218266 0.332392 0.480029
-0.21243 0.334244 -0.496644
-0.215122 0.489056 0.312953
-0.21769 -0.511588 0.341778
0.512278 -0.207288 0.337781
-0.505642 -0.21893 0.325166
-0.209142 0.323892 0.49689
-0.199479 0.349228 -0.495603
-0.203266 0.497027 0.333107
-0.211083 -0.499175 0.325231
0.506271 -0.209926 0.34869
-0.500191 -0.19792 0.329118
-0.223243 0.35496 0.49594
-0.200501 0.354649 -0.501931
-0.224977 0.490636 0.356068
-0.204496 -0.494076 0.348955
0.499492 -0.200244 0.336326
-0.505744 -0.221466 0.364674
-0.201622 0.346216 0.486048
-0.212869 0.358626 -0.507791
-0.21374 0.485245 0.353736
-0.193779 -0.481011 0.358093
0.481226 -0.209001 0.354645
-0.500858 -0.20761 0.382043
-0.189075 0.3505 0.497974
-0.197836 0.352284 -0.493231
-0.208028 0.482692 0.369211
-0.202182 -0.514706 0.370102
0.487403 -0.207527 0.362209
-0.487639 -0.219744 0.358423
-0.214488 0.376431 0.508817
-0.215072 0.390437 -0.500613
-0.207407 0.496201 0.378515
-0.200873 -0.496129 0.391968
0.507725 -0.229502 0.386021
-0.515245 -0.207415 0.359416
-0.19936 0.408455 0.480329
-0.18398 0.375319 -0.512109
-0.20399 0.502277 0.392503
-0.206844 -0.496561 0.381282
0.497128 -0.218674 0.381171
-0.506798 -0.194706 0.396401
-0.209105 0.378033 0.501998
-0.197149 0.406412 -0.485417
-0.198219 0.495687 0.392366
-0.201855 -0.512999 0.38923
0.475335 -0.199712 0.402905
-0.499937 -0.204478 0.404551
-0.210211 0.401954 0.491648
-0.21338 0.401519 -0.501293
-0.210738 0.497505 0.421398
-0.19743 -0.49747 0.401792
0.495851 -0.205558 0.412321
-0.498525 -0.207875 0.421941
-0.20169 0.417504 0.488009
-0.195092 0.409394 -0.511955
-0.199252 0.489535 0.410326
-0.19648 -0.503025 0.414951
0.51086 -0.197106 0.428028
-0.512161 -0.200943 0.42545
-0.220211 0.427776 0.513496
-0.220784 0.417172 -0.4985
-0.216811 0.509721 0.440396
-0.205696 -0.509712 0.423813
0.515725 -0.213341 0.413315
-0.504189 -0.209861 0.419214
-0.215258 0.429893 0.492788
-0.207891 0.439123 -0.499574
-0.200073 0.499766 0.43186
-0.208268 -0.500766 0.434049
0.491834 -0.217838 0.445438
-0.495505 -0.198847 0.448916
-0.20826 0.45542 0.498573
-0.220487 0.456311 -0.497213
-0.198404 0.505365 0.442326
-0.21606 -0.495597 0.440514
0.504045 -0.213951 0.43704
-0.509357 -0.201471 0.442817
-0.211681 0.455412 0.491151
-0.201052 0.457913 -0.484147
-0.215077 0.49837 0.450819
-0.229291 -0.490981 0.461609
0.509181 -0.203115 0.436567
-0.504068 -0.212707 0.46128
-0.210848 0.465028 0.491857
-0.205818 0.478407 -0.515503
-0.210703 0.493523 0.45993
-0.209888 -0.495386 0.44084
0.509117 -0.212173 0.486191
-0.487671 -0.209882 0.449009
-0.216862 0.474094 0.510169
-0.198087 0.472724 -0.496626
-0.202333 0.496645 0.482418
-0.191007 -0.493633 0.48061
0.483226 -0.210954 0.482212
-0.499658 -0.22388 0.476546
-0.210865 0.495052 0.497899
-0.214195 0.497018 -0.488785
-0.209453 0.507387 0.493158
-0.204005 -0.492169 0.484695
0.473652 -0.206039 0.489983
-0.502018 -0.215841 0.4891
-0.205192 0.518018 0.49308
-0.194279 0.488664 -0.488929
-0.215878 0.491174 0.498585
-0.188562 -0.498422 0.491775
0.487067 -0.223516 0.501658
-0.500004 -0.208635 0.499012
-0.181693 -0.503805 0.496236
-0.206401 -0.509023 -0.487903
-0.214576 0.487006 -0.510904
-0.196901 -0.494877 -0.524931
0.510694 -0.206426 -0.494681
-0.487358 -0.20456 -0.498093
-0.209973 -0.498938 0.484516
-0.188064 -0.485052 -0.51136
-0.181619 0.528438 -0.479841
-0.191361 -0.493831 -0.469006
0.513152 -0.186859 -0.500151
-0.494309 -0.205399 -0.486882
-0.187371 -0.479951 0.519765
-0.193899 -0.504082 -0.489287
-0.191919 0.500238 -0.470234
-0.207278 -0.497777 -0.469419
0.490824 -0.201688 -0.473171
-0.515088 -0.211048 -0.490589
-0.200887 -0.483159 0.498613
-0.2097 -0.471014 -0.50016
-0.201364 0.47056 -0.482162
-0.194746 -0.515796 -0.456895
0.496905 -0.205778 -0.447306
-0.511812 -0.185233 -0.460217
-0.190937 -0.442024 0.503858
-0.204279 -0.45363 -0.4847
-0.199574 0.500828 -0.468743
-0.177802 -0.494018 -0.454979
0.501577 -0.219288 -0.466503
-0.503478 -0.212412 -0.434534
-0.198291 -0.430077 0.496113
-0.189711 -0.434568 -0.500943
-0.214125 0.477702 -0.447096
-0.193531 -0.502616 -0.448101
0.4904 -0.200632 -0.450808
-0.514653 -0.209388 -0.434523
