ply
format ascii 1.0
comment sampling resolution: 0.01
comment noise level: 0.05
comment Created by Open3D
element vertex 1656
property double x
property double y
property double z
end_header
0.508086 -0.360031 0.160895
-0.437145 -0.374795 0.135155
-0.329595 0.0527301 0.519078
-0.348594 0.104953 -0.440762
-0.339953 0.462394 0.0838507
-0.394651 -0.588276 0.152609
0.446603 -0.446414 0.161754
-0.469576 -0.342315 0.227091
-0.350627 0.231758 0.512502
-0.458956 0.180031 -0.620215
-0.338983 0.491351 0.175591
-0.43256 -0.58305 0.207815
0.522611 -0.368555 0.086631
-0.528306 -0.337277 0.187255
-0.303483 0.249225 0.496524
-0.329523 0.196831 -0.316051
-0.441694 0.447392 0.230049
-0.323738 -0.424386 0.295904
0.526512 -0.239803 0.173071
-0.485371 -0.304659 0.242153
-0.3318 0.307498 0.519963
-0.38822 0.182878 -0.391683
-0.430432 0.508534 0.168956
-0.426911 -0.484281 0.237102
0.662539 -0.39591 0.217444
-0.434768 -0.371925 0.214371
-0.371315 0.199041 0.513797
-0.28433 0.175712 -0.467034
-0.398631 0.513906 0.17425
-0.363362 -0.410366 0.244035
0.501779 -0.326787 0.260777
-0.436165 -0.419554 0.166827
-0.306344 0.23239 0.403324
-0.347405 0.25271 -0.492674
-0.43651 0.457857 0.134436
-0.400215 -0.476644 0.249367
0.521293 -0.401067 0.303388
-0.587611 -0.462021 0.282251
-0.328701 0.247169 0.531407
-0.417267 0.190979 -0.533136
-0.524323 0.520833 0.197639
-0.394888 -0.508532 0.219616
0.457961 -0.470729 0.1778
-0.431559 -0.338968 0.218568
-0.384633 0.258051 0.508686
-0.33908 0.272973 -0.514592
-0.367004 0.499345 0.219776
-0.442222 -0.438375 0.253711
0.520101 -0.377964 0.314672
-0.484945 -0.41928 0.178997
-0.388616 0.334194 0.547686
-0.302714 0.298915 -0.494581
-0.403282 0.438753 0.279352
-0.367493 -0.517637 0.143992
0.49851 -0.324798 0.189155
-0.548694 -0.415576 0.225956
-0.301715 0.291332 0.514209
-0.466948 0.199502 -0.519463
-0.373609 0.527887 0.251967
-0.482324 -0.623119 0.202195
0.494968 -0.471128 0.207707
-0.483129 -0.447422 0.238287
-0.409933 0.284736 0.457158
-0.340266 0.236739 -0.487777
-0.363347 0.475405 0.301365
-0.340334 -0.417592 0.355323
0.404933 -0.36634 0.28216
-0.495534 -0.410415 0.196864
-0.37871 0.32544 0.548619
-0.404558 0.308654 -0.506654
-0.435145 0.489039 0.336399
-0.500889 -0.546501 0.252728
0.535051 -0.45191 0.168203
-0.582554 -0.373117 0.254079
-0.411083 0.132826 0.503925
-0.293428 0.349263 -0.520939
-0.356993 0.438177 0.265258
-0.374153 -0.452825 0.336342
0.490384 -0.361857 0.19023
-0.480003 -0.396416 0.31119
-0.410331 0.312611 0.46628
-0.534073 0.245408 -0.508598
-0.367223 0.506461 0.30934
-0.300939 -0.567286 0.274932
0.532027 -0.402588 0.268153
-0.50465 -0.356458 0.335131
-0.328242 0.24694 0.445448
-0.547257 0.321512 -0.552884
-0.367125 0.5454 0.271458
-0.447368 -0.437045 0.293346
0.572561 -0.358489 0.266425
-0.481642 -0.424246 0.330772
-0.303966 0.240963 0.498222
-0.350504 0.250478 -0.533538
-0.393007 0.496501 0.321802
-0.396219 -0.460565 0.349969
0.526111 -0.401355 0.227397
-0.494866 -0.406687 0.255915
-0.334507 0.252212 0.411052
-0.379547 0.26149 -0.510338
-0.369325 0.532233 0.307701
-0.504421 -0.413836 0.32197
0.464676 -0.35506 0.387874
-0.591949 -0.340415 0.409311
-0.404614 0.269883 0.458558
-0.495702 0.339829 -0.601753
-0.396253 0.525496 0.319141
-0.33945 -0.3841 0.384821
0.48956 -0.430449 0.391997
-0.519606 -0.366739 0.37564
-0.357334 0.322259 0.536521
-0.313057 0.309402 -0.475258
-0.446087 0.525208 0.340945
-0.333899 -0.488948 0.395043
0.509165 -0.378133 0.27713
-0.528194 -0.304854 0.338621
-0.395528 0.412736 0.498903
-0.407938 0.377672 -0.460765
-0.320089 0.373024 0.383298
-0.46359 -0.396622 0.426106
0.444222 -0.437204 0.276844
-0.453378 -0.363667 0.43074
-0.392248 0.394907 0.471151
-0.391531 0.404556 -0.506525
-0.346687 0.553546 0.344577
-0.390906 -0.481632 0.3316
0.453885 -0.33788 0.358372
-0.5638 -0.459544 0.347872
-0.345859 0.351203 0.460713
-0.445932 0.379557 -0.504107
-0.321947 0.592626 0.345542
-0.360369 -0.563936 0.233089
0.540717 -0.464349 0.443854
-0.404038 -0.42001 0.397925
-0.353972 0.315896 0.50406
-0.456237 0.291304 -0.578797
-0.45044 0.468438 0.420031
-0.327425 -0.499607 0.352988
0.502221 -0.376219 0.310221
-0.517712 -0.332854 0.422769
-0.389809 0.387451 0.530319
-0.376362 0.402427 -0.498965
-0.379477 0.529483 0.33236
-0.39628 -0.519576 0.36322
0.48111 -0.328072 0.333411
-0.586502 -0.323454 0.269096
-0.369777 0.482703 0.533015
-0.389731 0.436893 -0.457426
-0.402915 0.501001 0.412527
-0.342847 -0.380776 0.388107
0.487236 -0.430518 0.412988
-0.500768 -0.397961 0.450056
-0.412108 0.321292 0.514518
-0.422458 0.393107 -0.474367
-0.452054 0.458938 0.509497
-0.347788 -0.548309 0.42898
0.528119 -0.414158 0.352216
-0.525971 -0.300886 0.420133
-0.377523 0.450644 0.50714
-0.316128 0.374318 -0.451131
-0.318522 0.472843 0.374475
-0.275856 -0.51372 0.393849
0.413723 -0.301773 0.396254
-0.515024 -0.382103 0.4453
-0.429149 0.491208 0.52645
-0.402178 0.476422 -0.460538
-0.452292 0.461297 0.447629
-0.320402 -0.582154 0.481186
0.485523 -0.373049 0.542543
-0.480099 -0.479703 0.383025
-0.309046 0.370262 0.527729
-0.367722 0.493184 -0.435618
-0.394106 0.575741 0.456426
-0.433147 -0.520225 0.358476
0.591379 -0.335176 0.38641
-0.461949 -0.439569 0.420782
-0.47228 0.391155 0.562613
-0.38023 0.443568 -0.471722
-0.379296 0.48446 0.401381
-0.327641 -0.532426 0.491065
0.522881 -0.338269 0.494646
-0.49925 -0.376785 0.39485
-0.419978 0.422929 0.528698
-0.356925 0.464012 -0.508774
-0.426873 0.479879 0.429877
-0.364014 -0.441789 0.519191
0.471663 -0.466781 0.455262
-0.482459 -0.309488 0.513023
-0.355403 0.527093 0.487423
-0.293259 0.440762 -0.581083
-0.357633 0.57395 0.454301
-0.330963 -0.352068 0.378738
0.504038 -0.333643 0.474128
-0.511366 -0.380721 0.58578
-0.370774 0.479858 0.480333
-0.37062 0.423217 -0.5065
-0.4335 0.465987 0.487835
-0.379948 -0.529998 0.48673
0.513935 -0.315628 0.539236
-0.563473 -0.305345 0.433154
-0.452724 0.491586 0.507978
-0.341221 0.473462 -0.43525
-0.334643 0.491572 0.378633
-0.343121 -0.519172 0.522383
0.514577 -0.344819 0.553201
-0.475955 -0.3719 0.462446
-0.293514 -0.554401 0.548826
-0.318527 -0.457008 -0.450274
-0.388551 0.472595 -0.480405
-0.359935 -0.507764 -0.520444
0.411573 -0.350927 -0.541635
-0.479819 -0.31257 -0.54294
-0.410973 -0.46818 0.492791
-0.348408 -0.550808 -0.42156
-0.325569 0.508025 -0.575691
-0.395948 -0.507938 -0.525576
0.536189 -0.40337 -0.469036
-0.48447 -0.337439 -0.516838
-0.349594 -0.594073 0.509116
-0.483184 -0.553409 -0.58843
-0.386434 0.492639 -0.440344
-0.440798 -0.540444 -0.428072
0.562091 -0.296098 -0.470114
-0.486302 -0.33372 -0.479619
-0.357235 -0.485911 0.519298
-0.315185 -0.496177 -0.455427
-0.339403 0.501924 -0.48164
-0.337639 -0.468218 -0.501078
0.444185 -0.415578 -0.438198
-0.446407 -0.393209 -0.511326
-0.424894 -0.395573 0.456888
-0.342287 -0.440919 -0.521121
-0.372142 0.507455 -0.590237
-0.334552 -0.44293 -0.415247
0.559217 -0.43547 -0.412171
-0.529493 -0.391042 -0.541821
-0.317347 -0.370011 0.509262
-0.460063 -0.452456 -0.582965
-0.368263 0.632096 -0.38274
-0.265939 -0.426526 -0.371929
0.563728 -0.254123 -0.478164
-0.520581 -0.362829 -0.435403
-0.482748 -0.402052 0.468454
-0.359663 -0.401721 -0.463511
-0.376989 0.512765 -0.440814
-0.348071 -0.541278 -0.378715
0.506718 -0.359342 -0.485258
-0.559204 -0.370819 -0.39719
-0.544723 -0.422932 0.529624
-0.434497 -0.427308 -0.583421
-0.339858 0.508841 -0.427097
-0.366393 -0.433093 -0.455404
0.509248 -0.362986 -0.435451
-0.54073 -0.368657 -0.497453
-0.411172 -0.416907 0.538323
-0.360317 -0.421738 -0.447869
-0.519683 0.537615 -0.373291
-0.423199 -0.503234 -0.511991
0.473944 -0.428319 -0.454001
-0.466657 -0.290474 -0.435549
-0.397379 -0.417232 0.432713
-0.382151 -0.48845 -0.502591
-0.394992 0.464001 -0.395668
-0.385682 -0.454455 -0.474494
0.586924 -0.309703 -0.306346
-0.496515 -0.299954 -0.475708
-0.387152 -0.438379 0.494303
-0.420099 -0.493311 -0.492251
-0.443447 0.564237 -0.380105
-0.320751 -0.501308 -0.382552
0.474388 -0.434449 -0.416678
-0.408624 -0.349587 -0.44529
-0.320678 -0.449336 0.514836
-0.292622 -0.440291 -0.491282
-0.356654 0.514011 -0.366065
-0.362863 -0.492848 -0.427196
0.526598 -0.408735 -0.372641
-0.572401 -0.361698 -0.359863
-0.402265 -0.396929 0.526531
-0.445826 -0.461103 -0.425491
-0.372388 0.48991 -0.385828
-0.397615 -0.445143 -0.37722
0.461089 -0.347401 -0.369235
-0.530112 -0.335198 -0.369822
-0.401753 -0.283187 0.503286
-0.384565 -0.296543 -0.505336
-0.300264 0.517776 -0.355863
-0.412981 -0.48275 -0.405145
0.446854 -0.415953 -0.428429
-0.446021 -0.26752 -0.304584
-0.354964 -0.330825 0.502839
-0.334 -0.319153 -0.538493
-0.465179 0.433524 -0.389572
-0.444319 -0.58075 -0.305242
0.512522 -0.229524 -0.330802
-0.421694 -0.322133 -0.413317
-0.332639 -0.304555 0.412904
-0.396692 -0.325457 -0.526483
-0.438558 0.457143 -0.394593
-0.297389 -0.502794 -0.4801
0.574004 -0.388958 -0.256904
-0.5416 -0.4278 -0.315642
-0.415556 -0.38362 0.547021
-0.392698 -0.300996 -0.530319
-0.429906 0.55307 -0.388087
-0.399631 -0.514198 -0.338436
0.494555 -0.404886 -0.399456
-0.587565 -0.338728 -0.302978
-0.308571 -0.371935 0.46693
-0.369527 -0.313694 -0.633866
-0.311719 0.568758 -0.328356
-0.410164 -0.416637 -0.347613
0.367464 -0.375171 -0.214712
-0.537272 -0.388333 -0.3878
-0.347847 -0.333597 0.48595
-0.354765 -0.29739 -0.399521
-0.353828 0.450766 -0.448497
-0.345613 -0.477216 -0.304786
0.539886 -0.336497 -0.314066
-0.436383 -0.428755 -0.387691
-0.414642 -0.340141 0.500732
-0.353171 -0.204901 -0.549264
-0.345812 0.492712 -0.325761
-0.292395 -0.419147 -0.285236
0.454406 -0.404353 -0.290956
-0.491626 -0.323935 -0.210154
-0.325244 -0.386339 0.446534
-0.407997 -0.241905 -0.583165
-0.348842 0.490587 -0.359945
-0.383862 -0.472083 -0.308715
0.478327 -0.44502 -0.265337
-0.520367 -0.423395 -0.384155
-0.387112 -0.323163 0.504804
-0.290896 -0.291691 -0.473014
-0.419983 0.465375 -0.207924
-0.330114 -0.649475 -0.18063
0.492915 -0.315749 -0.287539
-0.500497 -0.375013 -0.303491
-0.3349 -0.16318 0.504293
-0.283035 -0.215341 -0.489499
-0.275724 0.51035 -0.312887
-0.243574 -0.514788 -0.386526
0.418329 -0.394502 -0.244382
-0.56296 -0.362782 -0.247527
-0.394897 -0.344543 0.552428
-0.331966 -0.249571 -0.514302
-0.257242 0.541406 -0.256642
-0.291214 -0.522906 -0.257185
0.44796 -0.362361 -0.315305
-0.476662 -0.410176 -0.281598
-0.43195 -0.21063 0.484522
-0.528115 -0.231938 -0.627129
-0.352083 0.439068 -0.216391
-0.360015 -0.600249 -0.275025
0.41096 -0.396644 -0.226732
-0.521014 -0.306144 -0.264187
-0.433054 -0.271647 0.520352
-0.272061 -0.224405 -0.608478
-0.439702 0.458763 -0.240915
-0.378907 -0.478745 -0.226651
0.479963 -0.366801 -0.32825
-0.476753 -0.348016 -0.306218
-0.328037 -0.211425 0.491142
-0.356027 -0.241485 -0.496885
-0.374309 0.550367 -0.136692
-0.434358 -0.597358 -0.238735
0.49609 -0.269839 -0.198464
-0.484794 -0.458045 -0.275178
-0.411126 -0.302541 0.505871
-0.407356 -0.272011 -0.527887
-0.416366 0.475131 -0.118457
-0.417599 -0.542321 -0.282196
0.521865 -0.440611 -0.15187
-0.476766 -0.371089 -0.226978
-0.332834 -0.203907 0.522723
-0.322719 -0.174065 -0.432191
-0.320697 0.491801 -0.205518
-0.348534 -0.502685 -0.202884
0.462337 -0.372453 -0.223624
-0.506112 -0.445828 -0.200516
-0.367819 -0.22004 0.511596
-0.377197 -0.209906 -0.475105
-0.408824 0.48422 -0.272365
-0.326281 -0.531701 -0.16375
0.452948 -0.450517 -0.187482
-0.585382 -0.397893 -0.301565
-0.433446 -0.184903 0.528202
-0.320061 -0.173458 -0.531479
-0.409308 0.429636 -0.179502
-0.37811 -0.481486 -0.12353
0.425764 -0.259285 -0.160742
-0.474687 -0.417469 -0.23051
-0.388007 -0.261494 0.44894
-0.342435 -0.111317 -0.483608
-0.302731 0.462215 -0.260117
-0.275975 -0.423712 -0.174085
0.526377 -0.368285 -0.177053
-0.47964 -0.315254 -0.153655
-0.326443 -0.11297 0.472648
-0.280863 -0.190332 -0.469151
-0.301469 0.438093 -0.210377
-0.339951 -0.525172 -0.139435
0.507041 -0.438256 -0.111175
-0.489864 -0.431232 -0.149382
-0.40176 -0.147595 0.503456
-0.389658 -0.141689 -0.394163
-0.35957 0.484573 -0.199989
-0.339498 -0.450742 -0.103575
0.55915 -0.385629 -0.142566
-0.426611 -0.390046 -0.155326
-0.315131 -0.132837 0.521848
-0.380462 -0.110476 -0.565946
-0.481124 0.495667 -0.145445
-0.410302 -0.537893 -0.100212
0.490371 -0.312296 -0.100187
-0.510525 -0.335111 -0.151897
-0.462219 -0.114828 0.515347
-0.257099 -0.125671 -0.480339
-0.418302 0.441291 -0.140786
-0.386802 -0.527957 -0.122157
0.50685 -0.395479 -0.158412
-0.501219 -0.42327 -0.160706
-0.370077 -0.0727631 0.554373
-0.323545 -0.0774621 -0.460046
-0.361187 0.560859 -0.170361
-0.37356 -0.445634 -0.136193
0.534611 -0.377748 -0.132017
-0.461962 -0.322594 -0.174444
-0.397378 -0.155219 0.393408
-0.388633 -0.150977 -0.47325
-0.280421 0.460124 -0.118013
-0.396089 -0.517247 -0.0831033
0.451299 -0.406401 -0.105701
-0.562091 -0.348155 -0.0783187
-0.374606 -0.097691 0.554141
-0.357676 -0.141511 -0.437299
-0.466898 0.566494 -0.00302989
-0.314169 -0.560179 -0.126718
0.490361 -0.377612 -0.206158
-0.492011 -0.353455 -0.146795
-0.33858 -0.212658 0.483131
-0.362506 -0.134098 -0.482553
-0.368056 0.576745 -0.193433
-0.396043 -0.554353 -0.0798259
0.44291 -0.351957 -0.0615837
-0.406081 -0.354139 -0.142087
-0.314219 -0.103766 0.477229
-0.358069 -0.082537 -0.503773
-0.415535 0.395346 -0.0618879
-0.352002 -0.52107 -0.0278465
0.476578 -0.466308 -0.105192
-0.499654 -0.342634 -0.0934226
-0.475043 -0.0360502 0.535828
-0.331347 -0.0957912 -0.494629
-0.420316 0.505413 -0.0562752
-0.418331 -0.473378 -0.129307
0.473517 -0.445213 -0.0679033
-0.462863 -0.368674 -0.102594
-0.429822 -0.092309 0.493116
-0.310735 0.0131394 -0.474264
-0.394256 0.53113 -0.0602476
-0.259518 -0.451257 -0.141548
0.474956 -0.346291 0.0288544
-0.44648 -0.348678 -0.092915
-0.386055 -0.0622107 0.473716
-0.475209 -0.0728316 -0.453525
-0.365165 0.543695 0.0337201
-0.292922 -0.534113 -0.080769
0.433801 -0.335147 -0.0568012
-0.396689 -0.371491 -0.0619493
-0.387873 -0.0746116 0.440576
-0.30064 -0.0851773 -0.524978
-0.386963 0.541989 -0.114731
-0.379048 -0.42051 -0.0318118
0.481995 -0.382797 -0.111075
-0.547005 -0.32688 0.0291361
-0.333069 0.0105265 0.48694
-0.417898 -0.0334585 -0.531328
-0.453999 0.455994 0.0132448
-0.427675 -0.488933 0.0716417
0.472669 -0.403835 -0.0938103
-0.569591 -0.330328 -0.0494322
-0.432544 -0.00909729 0.506439
-0.406998 -0.0245935 -0.446503
-0.339852 0.539043 -0.101585
-0.348582 -0.493153 -0.0374784
0.530566 -0.363534 -0.0951037
-0.486374 -0.347237 -0.0420565
-0.315439 -0.0399818 0.519879
-0.407195 -0.133168 -0.422882
-0.370129 0.469994 -0.0603239
-0.424715 -0.51853 -0.00589464
0.468838 -0.328185 -0.0120849
-0.475554 -0.387683 0.0369079
-0.38384 -0.0119126 0.536304
-0.336915 0.0788146 -0.545075
-0.422083 0.536309 -0.0658019
-0.400746 -0.554058 -0.0142066
0.570363 -0.431356 -0.120166
-0.512564 -0.382854 0.0369864
-0.347912 0.0739388 0.570333
-0.34686 -0.0609799 -0.555345
-0.395526 0.522516 -0.0259423
-0.39144 -0.542875 -0.012706
0.488623 -0.354311 -0.0189288
-0.491608 -0.379201 -0.0524671
-0.291392 0.0339907 0.593519
-0.387141 -0.0509298 -0.485408
-0.347836 0.464784 0.048205
-0.377697 -0.557252 0.0429013
0.534621 -0.35438 0.0378472
-0.61537 -0.248236 0.0532406
-0.430875 0.0136683 0.419678
-0.292754 0.00368403 -0.49872
-0.408867 0.454385 0.0695419
-0.385898 -0.460865 -0.0703948
0.409346 -0.379289 0.0613572
-0.462155 -0.331302 -0.0409249
-0.391044 0.063003 0.477613
-0.380564 0.0615518 -0.533391
-0.374649 0.468859 -0.0311782
-0.403457 -0.537638 0.0202762
0.507425 -0.464165 0.0382653
-0.56673 -0.39128 -0.0115182
-0.334603 0.012873 0.578637
-0.345714 0.0244881 -0.476486
-0.31782 0.44831 0.0288117
-0.332512 -0.473898 0.032313
0.497758 -0.44045 -0.00587492
-0.510222 -0.438084 0.0130908
-0.401614 0.0957412 0.490668
-0.377699 0.0721494 -0.50699
-0.300185 0.644471 0.0847885
-0.308875 -0.49204 0.0871241
0.508019 -0.338051 0.0955139
-0.544477 -0.369957 0.115831
-0.389681 0.0573746 0.531868
-0.418406 0.00466755 -0.511944
-0.352272 0.504826 0.083207
-0.36276 -0.506779 0.0209028
0.491545 -0.361198 0.00814563
-0.535128 -0.320735 0.0999035
-0.388712 0.107349 0.5168
-0.351715 0.00525232 -0.479341
-0.340122 0.550365 0.120985
-0.372666 -0.514138 0.0217962
0.596969 -0.444719 0.0856624
-0.573962 -0.39643 0.0277476
-0.484243 0.126278 0.512517
-0.265478 0.0673763 -0.528007
-0.354761 0.383987 0.179568
-0.403764 -0.535066 0.0718883
0.477494 -0.378216 0.139697
-0.569306 -0.364874 0.148137
-0.408342 0.0225643 0.478925
-0.489535 0.0760278 -0.427272
-0.389449 0.56351 0.0773688
-0.393112 -0.492768 0.0236359
0.512787 -0.368092 0.0895899
-0.48652 -0.358522 0.0760746
-0.409636 0.0734548 0.370392
-0.365381 0.0644524 -0.449923
-0.355581 0.482449 0.0728536
-0.313342 -0.460312 0.20969
0.54818 -0.341433 0.0173098
-0.472473 -0.463 0.0863232
-0.340016 0.182108 0.613792
-0.33794 0.147596 -0.389713
-0.28473 0.436685 0.107604
-0.399164 -0.520097 0.160497
0.519657 -0.426665 0.145967
-0.405048 -0.389692 0.0734526
-0.387618 -0.0282587 0.574103
-0.381657 0.161438 -0.518042
-0.326195 0.463093 0.155233
-0.300484 -0.475413 0.0546985
0.474698 -0.407264 0.0382741
-0.472784 -0.38249 0.134727
-0.379286 0.0934456 0.41309
-0.382716 0.123676 -0.524057
-0.334098 0.457206 0.169298
-0.299863 -0.496789 0.118936
0.455721 -0.344407 0.0977431
-0.479112 -0.469456 0.0947713
-0.313926 0.146145 0.580269
-0.437644 0.12472 -0.497734
-0.39487 0.529198 0.157804
-0.374495 -0.472443 0.100683
0.444308 -0.396148 0.167745
-0.462323 -0.356949 0.101058
-0.376639 0.174767 0.511064
-0.343233 0.107601 -0.421425
-0.445703 0.443788 0.0839247
-0.342936 -0.482093 0.0808383
0.466078 -0.398731 0.208183
-0.606739 -0.424948 0.144977
-0.427832 0.161751 0.512797
-0.394877 0.180223 -0.527449
-0.401824 0.445941 0.113581
-0.318552 -0.559928 0.113029
0.526446 -0.396505 0.0943485
-0.415342 -0.401634 0.0574415
-0.398335 0.114946 0.540661
-0.378791 0.21626 -0.420504
-0.424096 0.573595 0.125877
-0.445279 -0.482219 0.141011
0.587853 -0.429202 0.162962
-0.449666 -0.400167 0.130514
-0.341721 0.0975463 0.467209
-0.412763 0.152137 -0.475919
-0.403725 0.370962 0.246421
-0.245454 -0.497911 0.0889975
0.541204 -0.323458 0.0877704
-0.502783 -0.286426 0.178537
-0.37767 0.144185 0.534804
-0.438926 0.105018 -0.56651
-0.358386 0.496117 0.270733
-0.400659 -0.480271 0.145542
0.464515 -0.27578 0.122052
-0.465744 -0.326294 0.213678
-0.318679 0.142255 0.526944
-0.398116 0.230028 -0.498803
-0.40157 0.557866 0.279839
-0.301086 -0.494662 0.286203
0.443949 -0.40576 0.144128
-0.518836 -0.383566 0.152233
-0.395725 0.298499 0.470646
-0.375403 0.125539 -0.525096
-0.314469 0.479053 0.345941
-0.4047 -0.583996 0.133072
0.512473 -0.312225 0.234873
-0.478045 -0.394261 0.234022
-0.374412 0.250029 0.463563
-0.374792 0.215218 -0.506548
-0.368406 0.499046 0.223651
-0.400352 -0.528936 0.342094
0.46919 -0.392692 0.266892
-0.488638 -0.424346 0.20319
-0.354071 0.119053 0.506587
-0.351743 0.06713 -0.481809
-0.454091 0.48273 0.159486
-0.389496 -0.56849 0.182697
0.482687 -0.335067 0.312636
-0.402292 -0.392156 0.174282
-0.350917 0.199164 0.494458
-0.398274 0.305606 -0.494186
-0.425867 0.599044 0.239214
-0.396814 -0.466583 0.209992
0.453724 -0.326906 0.162013
-0.426842 -0.341761 0.255661
-0.372568 0.280507 0.51178
-0.318321 0.298254 -0.524056
-0.292941 0.471775 0.324495
-0.386578 -0.487063 0.19655
0.529575 -0.349684 0.271663
-0.436177 -0.368774 0.195082
-0.346866 0.232132 0.510023
-0.355548 0.224199 -0.481835
-0.364434 0.541597 0.340465
-0.449664 -0.577873 0.290756
0.474154 -0.47245 0.299579
-0.478216 -0.252274 0.257993
-0.46318 0.263301 0.564877
-0.320246 0.257286 -0.606788
-0.392897 0.559686 0.344269
-0.383517 -0.481392 0.291728
0.403352 -0.29989 0.298504
-0.455654 -0.349768 0.322625
-0.336845 0.286674 0.534161
-0.352065 0.357382 -0.471071
-0.295252 0.499208 0.257451
-0.401324 -0.396739 0.351264
0.493046 -0.484271 0.255593
-0.466931 -0.424613 0.374067
-0.363228 0.286571 0.512395
-0.371643 0.234701 -0.451217
-0.333138 0.545785 0.308157
-0.236403 -0.507744 0.280337
0.529339 -0.496226 0.234755
-0.524889 -0.31151 0.255014
-0.356345 0.251018 0.423253
-0.374272 0.312807 -0.52468
-0.416152 0.547668 0.305693
-0.475903 -0.427513 0.240333
0.457342 -0.397919 0.216014
-0.555128 -0.361087 0.307075
-0.332004 0.295442 0.510205
-0.394884 0.311782 -0.413827
-0.415069 0.582602 0.328921
-0.389727 -0.488097 0.31352
0.471931 -0.431818 0.305539
-0.493586 -0.484992 0.340661
-0.431245 0.224015 0.4764
-0.410109 0.345482 -0.550259
-0.372246 0.559462 0.344786
-0.436234 -0.516604 0.358668
0.530468 -0.33651 0.348086
-0.507977 -0.363823 0.241459
-0.302066 0.277879 0.555942
-0.31696 0.338306 -0.571391
-0.384254 0.452162 0.353716
-0.371798 -0.495071 0.339145
0.495845 -0.43297 0.335088
-0.517433 -0.408956 0.342415
-0.325667 0.304499 0.540674
-0.264257 0.252043 -0.500488
-0.460065 0.505061 0.35312
-0.318078 -0.510437 0.347842
0.60296 -0.279564 0.296733
-0.486377 -0.409796 0.317484
-0.322666 0.361884 0.467782
-0.387807 0.326969 -0.532137
-0.247345 0.51072 0.272108
-0.332467 -0.512443 0.384732
0.502655 -0.34294 0.332778
-0.502089 -0.335817 0.350095
-0.372968 0.43237 0.502888
-0.281204 0.381633 -0.477524
-0.350869 0.49553 0.314877
-0.312774 -0.44081 0.341564
0.470014 -0.436648 0.431585
-0.47736 -0.41033 0.273933
-0.41453 0.391261 0.535639
-0.263582 0.413084 -0.578298
-0.383475 0.446578 0.413351
-0.387031 -0.488761 0.304275
0.666619 -0.38771 0.375838
-0.536142 -0.429848 0.385631
-0.383178 0.316585 0.41869
-0.39951 0.308548 -0.471524
-0.421786 0.510664 0.411264
-0.347312 -0.602978 0.371111
0.481632 -0.448553 0.413779
-0.454265 -0.362436 0.378118
-0.383829 0.391059 0.515702
-0.285501 0.354734 -0.5371
-0.341171 0.535316 0.329874
-0.341904 -0.580461 0.334346
0.520735 -0.331586 0.375939
-0.51914 -0.347084 0.383348
-0.343589 0.374454 0.546937
-0.413865 0.426373 -0.453186
-0.267368 0.446461 0.363608
-0.332117 -0.454178 0.278116
0.442537 -0.368287 0.347632
-0.593272 -0.373364 0.389627
-0.434158 0.482241 0.466394
-0.355069 0.428612 -0.461417
-0.355498 0.557774 0.430884
-0.364418 -0.455319 0.462961
0.474399 -0.36148 0.392467
-0.548801 -0.277143 0.359206
-0.335143 0.42941 0.494507
-0.448256 0.430758 -0.501678
-0.31143 0.529819 0.332872
-0.344387 -0.556428 0.449538
0.554045 -0.318605 0.501138
-0.585331 -0.301147 0.389366
-0.321036 0.339342 0.534935
-0.375186 0.493416 -0.40982
-0.333146 0.468899 0.401664
-0.346335 -0.453164 0.385501
0.563864 -0.322161 0.414779
-0.50569 -0.324068 0.408531
-0.308928 0.540601 0.503753
-0.393552 0.470309 -0.460825
-0.395842 0.58272 0.504823
-0.337843 -0.524218 0.46882
0.440914 -0.297109 0.447297
-0.501042 -0.369909 0.421785
-0.481554 0.384401 0.496223
-0.335255 0.47212 -0.414874
-0.427397 0.521087 0.435866
-0.245171 -0.495315 0.432125
0.520281 -0.35463 0.502523
-0.577233 -0.403362 0.31903
-0.300724 0.459694 0.393632
-0.355279 0.515789 -0.49653
-0.389641 0.467894 0.477115
-0.483603 -0.500885 0.483856
0.517078 -0.421824 0.494485
-0.523263 -0.376091 0.337377
-0.444942 0.461256 0.493075
-0.304001 0.462002 -0.583784
-0.397381 0.450657 0.498534
-0.364611 -0.515103 0.531481
0.541695 -0.384681 0.530851
-0.494662 -0.428858 0.468627
-0.367284 0.463732 0.597025
-0.383473 0.456592 -0.373752
-0.364835 0.527516 0.483035
-0.299704 -0.462324 0.429428
0.460484 -0.363245 0.531455
-0.446768 -0.295828 0.422428
-0.342611 0.53038 0.495907
-0.369048 0.405475 -0.538537
-0.386463 0.527646 0.514081
-0.334929 -0.449798 0.522676
0.512233 -0.410022 0.489982
-0.546706 -0.302089 0.477237
-0.40116 0.447758 0.440812
-0.376498 0.585804 -0.498093
-0.404933 0.525221 0.475086
-0.27629 -0.444935 0.618011
0.460929 -0.449179 0.380683
-0.546637 -0.386585 0.544582
-0.476706 -0.466418 0.541939
-0.299747 -0.54339 -0.501256
-0.273481 0.497176 -0.508431
-0.263968 -0.48263 -0.526519
0.569426 -0.398531 -0.572191
-0.504262 -0.37424 -0.508136
-0.351456 -0.466256 0.553041
-0.38652 -0.597322 -0.467095
-0.350109 0.521122 -0.469803
-0.403281 -0.506026 -0.507342
0.574789 -0.449642 -0.460917
-0.477028 -0.384527 -0.557006
-0.323837 -0.487244 0.506038
-0.288694 -0.578291 -0.600449
-0.337877 0.54727 -0.436041
-0.36642 -0.524936 -0.501713
0.524216 -0.32366 -0.46974
-0.488354 -0.380519 -0.413904
-0.356699 -0.508542 0.498652
-0.373593 -0.40463 -0.682416
-0.517579 0.512264 -0.465553
-0.37918 -0.561986 -0.453614
0.497182 -0.423558 -0.394274
-0.430073 -0.410507 -0.44924
-0.330627 -0.457596 0.571351
-0.365207 -0.46069 -0.59499
-0.31944 0.419928 -0.457076
-0.34227 -0.514322 -0.462455
0.476979 -0.370792 -0.523483
-0.487021 -0.346922 -0.378499
-0.362202 -0.417638 0.467711
-0.462241 -0.433173 -0.515494
-0.337469 0.416492 -0.493402
-0.362533 -0.439984 -0.47687
0.536241 -0.29289 -0.467701
-0.48347 -0.356009 -0.458861
-0.365833 -0.353953 0.557775
-0.378856 -0.383188 -0.446064
-0.295144 0.496216 -0.486743
-0.29125 -0.523033 -0.4427
0.424233 -0.335428 -0.448738
-0.562548 -0.335792 -0.395694
-0.344286 -0.416252 0.490583
-0.389502 -0.447688 -0.499835
-0.39098 0.583449 -0.293978
-0.328319 -0.521472 -0.473178
0.395285 -0.391351 -0.492821
-0.555948 -0.41057 -0.435039
-0.381078 -0.470099 0.492293
-0.277195 -0.390175 -0.398146
-0.340445 0.516033 -0.465551
-0.395605 -0.546158 -0.417011
0.452194 -0.244009 -0.350686
-0.421286 -0.319277 -0.434821
-0.337802 -0.39674 0.569054
-0.358034 -0.464751 -0.541009
-0.393221 0.611553 -0.474546
-0.359974 -0.484967 -0.492761
0.462532 -0.416868 -0.473304
-0.517053 -0.420417 -0.309279
-0.354436 -0.4114 0.513466
-0.311881 -0.388932 -0.510876
-0.415349 0.465776 -0.439641
-0.344146 -0.492114 -0.388234
0.522344 -0.318777 -0.384323
-0.493121 -0.31295 -0.451192
-0.304717 -0.361461 0.404361
-0.396496 -0.443266 -0.479201
-0.333091 0.526011 -0.360674
-0.337413 -0.493447 -0.423999
0.477435 -0.347434 -0.396656
-0.48354 -0.397235 -0.375146
-0.312801 -0.439581 0.53141
-0.334787 -0.417877 -0.484708
-0.38461 0.562166 -0.316302
-0.39179 -0.464975 -0.359274
0.460913 -0.406382 -0.354623
-0.571358 -0.358538 -0.426478
-0.415808 -0.432141 0.522166
-0.364891 -0.302008 -0.466173
-0.340803 0.404558 -0.385806
-0.385353 -0.50742 -0.358047
0.460132 -0.334134 -0.365474
-0.421228 -0.438211 -0.398796
-0.33892 -0.342323 0.554535
-0.372073 -0.287864 -0.516009
-0.334461 0.519325 -0.393292
-0.432854 -0.557689 -0.391189
0.457544 -0.360339 -0.312997
-0.400498 -0.3809 -0.392117
-0.330346 -0.402349 0.44328
-0.398945 -0.469728 -0.447182
-0.296838 0.494179 -0.309032
-0.36031 -0.540729 -0.383371
0.456781 -0.374996 -0.313855
-0.416928 -0.299016 -0.321435
-0.291951 -0.321309 0.569261
-0.378497 -0.315063 -0.530839
-0.306333 0.481898 -0.269989
-0.383326 -0.47663 -0.338233
0.561615 -0.362525 -0.377345
-0.469021 -0.377206 -0.34015
-0.36057 -0.310697 0.439624
-0.250738 -0.264958 -0.525358
-0.299438 0.433113 -0.198343
-0.360233 -0.543597 -0.339169
0.545334 -0.326701 -0.293929
-0.436551 -0.350181 -0.324633
-0.371466 -0.266632 0.470301
-0.390809 -0.204447 -0.581817
-0.54309 0.4241 -0.289907
-0.351872 -0.504778 -0.330722
0.499814 -0.460346 -0.365957
-0.510035 -0.405088 -0.318639
-0.36045 -0.373396 0.448199
-0.237836 -0.234828 -0.398034
-0.374198 0.460725 -0.379951
-0.354751 -0.557435 -0.312295
0.498347 -0.402823 -0.332243
-0.46652 -0.281933 -0.378676
-0.348689 -0.266459 0.490988
-0.391235 -0.305794 -0.476014
-0.308246 0.491295 -0.352586
-0.359743 -0.486288 -0.294813
0.400379 -0.30225 -0.293401
-0.500625 -0.371719 -0.368582
-0.29315 -0.264339 0.541642
-0.385448 -0.362746 -0.474284
-0.363231 0.470391 -0.34039
-0.302427 -0.58373 -0.328851
0.405305 -0.417546 -0.293263
-0.440348 -0.384031 -0.251367
-0.348469 -0.252655 0.431725
-0.316391 -0.318184 -0.538984
-0.331488 0.499261 -0.312187
-0.287874 -0.461334 -0.298329
0.488398 -0.422199 -0.232323
-0.476591 -0.389911 -0.316027
-0.319315 -0.256749 0.540758
-0.398764 -0.253675 -0.563966
-0.295084 0.497482 -0.306948
-0.441409 -0.506811 -0.232214
0.4776 -0.388296 -0.169175
-0.483081 -0.417436 -0.307806
-0.345738 -0.250909 0.47464
-0.490169 -0.266991 -0.511103
-0.322754 0.454988 -0.261877
-0.36249 -0.473557 -0.278137
0.428208 -0.343665 -0.291532
-0.465431 -0.361542 -0.206843
-0.307298 -0.190651 0.469851
-0.426762 -0.248675 -0.443222
-0.431303 0.487868 -0.268481
-0.400569 -0.489761 -0.192172
0.437288 -0.389652 -0.275559
-0.416707 -0.351862 -0.212357
-0.351398 -0.209355 0.472747
-0.410905 -0.29221 -0.465286
-0.325928 0.415668 -0.221005
-0.42709 -0.481078 -0.253791
0.467018 -0.30567 -0.257846
-0.55675 -0.399735 -0.264535
-0.344158 -0.307039 0.469696
-0.31127 -0.188531 -0.483746
-0.408801 0.45637 -0.242647
-0.369674 -0.534775 -0.208758
0.471932 -0.375232 -0.233473
-0.450365 -0.356371 -0.210339
-0.400853 -0.195136 0.481022
-0.28828 -0.303969 -0.562212
-0.352279 0.553118 -0.235372
-0.277502 -0.526742 -0.244404
0.509601 -0.267325 -0.211083
-0.610095 -0.347578 -0.296106
-0.443813 -0.0924908 0.532271
-0.346252 -0.245176 -0.480911
-0.26565 0.408666 -0.193914
-0.36881 -0.485035 -0.13854
0.550663 -0.381026 -0.179323
-0.450947 -0.337997 -0.233499
-0.363804 -0.138966 0.466609
-0.325067 -0.236598 -0.592929
-0.302467 0.538819 -0.272719
-0.371214 -0.512936 -0.182829
0.513696 -0.406663 -0.215357
-0.461896 -0.408999 -0.220092
-0.30109 -0.115615 0.475691
-0.340846 -0.242673 -0.54763
-0.250939 0.445372 -0.245294
-0.371715 -0.45961 -0.121277
0.438413 -0.318244 -0.160386
-0.601122 -0.321359 -0.249884
-0.292673 -0.209699 0.520795
-0.396847 -0.212588 -0.57941
-0.273523 0.478142 -0.177963
-0.396713 -0.564852 -0.224322
0.565946 -0.18628 -0.186892
-0.476106 -0.384679 -0.2262
-0.349901 -0.214319 0.603855
-0.270935 -0.129164 -0.533933
-0.400981 0.519762 -0.19326
-0.353407 -0.504902 -0.211695
0.435249 -0.380589 -0.221075
-0.523223 -0.338267 -0.160066
-0.347603 -0.181205 0.468627
-0.37262 -0.161476 -0.449467
-0.500788 0.392557 -0.179253
-0.31116 -0.487271 -0.152436
0.544354 -0.340522 -0.10411
-0.514387 -0.33191 -0.169841
-0.443312 -0.0750793 0.511085
-0.320025 -0.106362 -0.527858
-0.313625 0.530614 -0.131681
-0.374588 -0.45032 -0.156182
0.602721 -0.330451 -0.219076
-0.484919 -0.315158 -0.17882
-0.42166 -0.0629346 0.422303
-0.326091 -0.102147 -0.507248
-0.379341 0.542546 -0.177786
-0.332328 -0.461266 -0.125307
0.35473 -0.314987 -0.0914402
-0.570856 -0.354417 -0.106328
-0.394088 -0.088369 0.490885
-0.376752 -0.0706478 -0.480211
-0.335862 0.531597 -0.0420285
-0.375256 -0.52043 -0.132935
0.489373 -0.339094 -0.0959754
-0.525271 -0.411068 -0.169978
-0.422166 -0.123976 0.45895
-0.369965 -0.156167 -0.487484
-0.358779 0.416176 -0.0929942
-0.335029 -0.494773 -0.140751
0.450322 -0.401648 -0.114609
-0.455243 -0.4169 -0.151487
-0.335151 -0.0330038 0.595938
-0.325559 -0.0718323 -0.534892
-0.482376 0.527455 -0.144264
-0.402332 -0.502863 -0.0302347
0.441237 -0.293784 -0.110829
-0.439207 -0.411417 -0.111728
-0.347492 -0.114364 0.484657
-0.342586 -0.132982 -0.456382
-0.366413 0.502474 -0.0469807
-0.364813 -0.481161 -0.0881058
0.485168 -0.376358 -0.182437
-0.501318 -0.372032 -0.0677096
-0.309959 -0.0754015 0.481278
-0.399945 -0.00557579 -0.510976
-0.306837 0.555165 -0.102134
-0.385127 -0.559371 -0.044727
0.585097 -0.438186 -0.121648
-0.489235 -0.430573 -0.121652
-0.324161 -0.162354 0.542458
-0.321706 -0.0184201 -0.46137
-0.358112 0.527026 -0.148997
-0.229188 -0.561673 -0.100585
0.501874 -0.348764 -0.0228392
-0.453833 -0.436285 -0.0474601
-0.309239 0.000319583 0.536409
-0.325035 -0.0149999 -0.456311
-0.49334 0.492697 -0.170535
-0.37328 -0.408085 -0.0625118
0.533588 -0.302773 -0.0378342
-0.467634 -0.418565 -0.0430245
-0.390522 -0.00258986 0.509788
-0.296425 0.0118566 -0.519561
-0.33955 0.573822 -0.021434
-0.345083 -0.594506 -0.0253828
0.560432 -0.34429 -0.127533
-0.450463 -0.460781 -0.104928
-0.50088 -0.0720271 0.418328
-0.303041 -0.0244863 -0.587114
-0.310457 0.551662 0.0249615
-0.349819 -0.530509 -0.049437
0.542865 -0.295333 0.0229154
-0.46031 -0.333129 -0.0617833
-0.300392 -0.01764 0.456863
-0.372817 -0.0532895 -0.518533
-0.386812 0.471522 0.0795807
-0.34234 -0.534434 -0.0262457
0.492651 -0.408913 -0.0523661
-0.542888 -0.447634 -0.0762505
-0.348473 0.0629188 0.554828
-0.404447 -0.0425025 -0.510146
-0.314395 0.392833 -0.021437
-0.343443 -0.414214 -0.120409
0.542439 -0.389078 -0.063197
-0.523886 -0.334157 -0.0258552
-0.30047 -0.0474393 0.473783
-0.43327 0.0253325 -0.468755
-0.376934 0.428 -0.0563048
-0.320105 -0.407209 -0.0783655
0.527503 -0.374364 0.050227
-0.514656 -0.474042 -0.152173
-0.354763 -0.0630401 0.539123
-0.345294 0.128474 -0.466853
-0.314739 0.50513 -0.131424
-0.384996 -0.521244 -0.0398156
0.398906 -0.325038 -0.000683992
-0.421286 -0.360853 -0.0338175
-0.353719 -0.0463163 0.452973
-0.34683 0.0315461 -0.555607
-0.406744 0.417976 0.0162322
-0.436403 -0.51861 -0.041303
0.564539 -0.279686 -0.0144152
-0.506918 -0.447096 0.0203033
-0.382243 0.0510283 0.49309
-0.339363 -0.000844356 -0.571287
-0.481735 0.543036 -0.0235438
-0.349885 -0.471465 0.0688638
0.479586 -0.446791 0.0104646
-0.491766 -0.408769 0.0133215
-0.32752 -0.0199911 0.564575
-0.326468 -0.0102842 -0.433239
-0.292063 0.498047 0.0419354
-0.390153 -0.495382 -0.0981891
0.563145 -0.44481 0.0255411
-0.517942 -0.431017 -0.00438565
-0.278151 -0.00778604 0.474897
-0.343436 0.0956231 -0.616337
-0.429529 0.494537 0.0222559
-0.392987 -0.564294 0.0299686
0.517145 -0.327122 0.00114275
-0.520976 -0.314073 -0.0239925
-0.428 0.100074 0.515883
-0.468972 0.030462 -0.519419
-0.445755 0.534397 0.049318
-0.371038 -0.409297 -0.0428352
0.459468 -0.439378 0.170193
-0.532376 -0.342217 0.0634472
-0.319453 0.0710214 0.439404
-0.442487 0.0670727 -0.425726
-0.501573 0.532532 -0.00937941
-0.333372 -0.522342 0.056768
0.469301 -0.349372 -0.00269965
-0.529361 -0.320482 0.0889253
-0.303391 0.0576815 0.610221
-0.360754 0.0225398 -0.538814
-0.447375 0.510903 0.122357
-0.264864 -0.439782 0.145232
0.532392 -0.42277 -0.0241623
-0.529521 -0.279732 -0.011381
-0.364721 -0.00501119 0.488724
-0.35027 0.105091 -0.465625
-0.341406 0.525901 0.0295871
-0.225255 -0.509082 0.0160646
0.570783 -0.419858 0.0862555
-0.479702 -0.376408 0.103535
-0.288176 0.0741007 0.502727
-0.389605 0.0723459 -0.520906
-0.405661 0.448118 0.0519986
-0.300137 -0.513706 0.0108173
0.436269 -0.356235 0.153806
-0.458605 -0.333124 0.0303837
-0.430756 0.0918011 0.528702
-0.316084 0.0176513 -0.60413
-0.367103 0.508066 0.107419
-0.35571 -0.53855 0.115929
0.516038 -0.350185 0.175143
-0.490559 -0.339193 0.0801333
-0.34949 0.0265212 0.477593
-0.25194 0.156792 -0.559002
-0.379771 0.569414 0.17916
-0.406739 -0.516136 0.205063
0.459766 -0.335155 0.117503
-0.446697 -0.336882 0.115406
-0.333434 0.105804 0.520063
-0.309571 0.134637 -0.477702
-0.336059 0.423938 0.167516
-0.3158 -0.504382 0.131631
0.515419 -0.401909 0.166092
-0.472912 -0.380477 0.04306
-0.415226 0.127662 0.534899
-0.38922 0.144667 -0.542258
-0.383503 0.522103 0.128609
-0.341369 -0.477654 0.0625086
0.482303 -0.401293 0.194466
-0.51524 -0.335394 0.0798731
-0.344719 0.0875765 0.507271
-0.288494 0.182911 -0.607591
-0.409459 0.558943 0.0714319
-0.347657 -0.480884 0.17015
0.606356 -0.414603 0.207886
-0.47717 -0.280923 0.150431
-0.370653 0.101647 0.506092
-0.317845 0.140763 -0.515003
-0.354878 0.449003 0.205518
-0.429848 -0.570307 0.158591
0.486672 -0.407605 0.14096
-0.586741 -0.38741 0.184448
-0.348549 0.159575 0.536743
-0.417965 0.244223 -0.473087
-0.233351 0.50703 0.103167
-0.389134 -0.529646 0.12903
0.453713 -0.32495 0.174172
-0.519733 -0.359442 0.0860093
-0.343832 0.155789 0.450849
-0.378724 0.16447 -0.497935
-0.307925 0.488994 0.0894302
-0.345711 -0.600102 0.172051
0.611562 -0.405465 0.157379
-0.473782 -0.328033 0.179139
-0.345515 0.147589 0.4599
-0.372393 0.149539 -0.492409
-0.348929 0.522403 0.175083
-0.34379 -0.465321 0.215137
0.448156 -0.411994 0.198966
-0.510921 -0.367847 0.200237
-0.312602 0.143242 0.482747
-0.362139 0.14653 -0.518617
-0.405641 0.439422 0.130287
-0.433497 -0.544525 0.209538
0.394242 -0.365537 0.176195
-0.539439 -0.438905 0.127465
-0.407833 0.182576 0.489659
-0.391228 0.211795 -0.381414
-0.365689 0.441743 0.207712
-0.394828 -0.50139 0.209115
0.460921 -0.390915 0.184088
-0.413444 -0.403152 0.176359
-0.31239 0.265736 0.536729
-0.28905 0.178025 -0.529139
-0.415561 0.488214 0.122874
-0.36515 -0.51576 0.237076
0.373587 -0.359263 0.297284
-0.564031 -0.381905 0.30827
-0.391104 0.184645 0.545689
-0.406601 0.292668 -0.559393
-0.339122 0.445316 0.265551
-0.343111 -0.435418 0.243578
0.530189 -0.405385 0.274524
-0.576105 -0.429883 0.149376
-0.440247 0.167984 0.49425
-0.34456 0.231673 -0.491303
-0.338456 0.660305 0.191285
-0.273466 -0.558508 0.264139
0.429547 -0.435567 0.197626
-0.610547 -0.337251 0.282318
-0.345223 0.225356 0.554272
-0.321829 0.198326 -0.500477
-0.407281 0.489271 0.276374
-0.38937 -0.535661 0.26871
0.560052 -0.2887 0.260276
-0.437757 -0.337433 0.202234
-0.296019 0.286758 0.464019
-0.387487 0.196715 -0.340843
-0.358491 0.503718 0.263672
-0.394242 -0.507425 0.269021
0.42124 -0.342941 0.190546
-0.569753 -0.427522 0.269666
-0.310759 0.203505 0.551166
-0.287077 0.296693 -0.539022
-0.419248 0.544733 0.245772
-0.333472 -0.499955 0.264146
0.583373 -0.347388 0.151098
-0.470881 -0.336737 0.239366
-0.339076 0.308308 0.472621
-0.2921 0.24402 -0.574203
-0.424411 0.517156 0.314692
-0.327185 -0.531445 0.24031
0.561514 -0.29272 0.301334
-0.542856 -0.285796 0.263604
-0.405571 0.226599 0.526557
-0.305652 0.319593 -0.533229
-0.37838 0.524413 0.358881
-0.45338 -0.477099 0.254736
0.515782 -0.33247 0.306025
-0.397622 -0.419951 0.317217
-0.348268 0.21691 0.538349
-0.37875 0.254098 -0.52152
-0.351526 0.486697 0.270979
-0.413945 -0.478526 0.250075
0.490993 -0.371005 0.307805
-0.522214 -0.390417 0.255747
-0.429354 0.278063 0.503694
-0.223447 0.31846 -0.456868
-0.328858 0.453478 0.303836
-0.273674 -0.548062 0.326552
0.515863 -0.416868 0.349449
-0.529051 -0.306347 0.367278
-0.34341 0.196089 0.487021
-0.334261 0.262644 -0.551161
-0.41383 0.534921 0.232406
-0.273992 -0.537725 0.352455
0.490807 -0.308078 0.338719
-0.452404 -0.403916 0.29037
-0.320851 0.367014 0.572338
-0.446035 0.288605 -0.518572
-0.267581 0.526977 0.318197
-0.364868 -0.490121 0.344604
0.506793 -0.326327 0.335914
-0.518771 -0.295462 0.340223
-0.339319 0.370778 0.518839
-0.288849 0.219963 -0.495137
-0.318889 0.525365 0.306427
-0.335786 -0.515551 0.307253
0.552656 -0.350632 0.231279
-0.547133 -0.312295 0.311672
-0.450493 0.364634 0.545205
-0.311336 0.352569 -0.517791
-0.388967 0.579459 0.393334
-0.340567 -0.571745 0.431678
0.522382 -0.216723 0.363866
-0.368377 -0.279194 0.460277
-0.40368 0.290802 0.551918
-0.330287 0.354121 -0.516309
-0.34712 0.558986 0.435699
-0.326956 -0.463359 0.348829
0.532729 -0.419549 0.406792
-0.430239 -0.33264 0.435086
-0.358798 0.420746 0.434761
-0.406044 0.334101 -0.533312
-0.340394 0.457694 0.388754
-0.42221 -0.434009 0.362404
0.441209 -0.429602 0.336957
-0.603465 -0.414534 0.271635
-0.331671 0.377601 0.462283
-0.330177 0.351321 -0.576213
-0.389384 0.507198 0.223445
-0.404415 -0.495187 0.352348
0.399136 -0.288958 0.381978
-0.509108 -0.440665 0.347269
-0.254951 0.387215 0.398161
-0.409688 0.439196 -0.601982
-0.355958 0.484259 0.343738
-0.432508 -0.411202 0.347762
0.438574 -0.347805 0.432525
-0.476368 -0.375619 0.393697
-0.432001 0.370831 0.457161
-0.334293 0.355719 -0.530246
-0.287221 0.489352 0.460304
-0.425935 -0.48542 0.451675
0.513299 -0.373511 0.353801
-0.537658 -0.408364 0.429649
-0.439824 0.301427 0.551288
-0.30909 0.4279 -0.414179
-0.357971 0.578169 0.434756
-0.362 -0.497225 0.458638
0.451712 -0.404686 0.458077
-0.434006 -0.388839 0.381478
-0.273002 0.43436 0.518713
-0.284009 0.407573 -0.561776
-0.381498 0.55416 0.379249
-0.342413 -0.603447 0.480031
0.57728 -0.367733 0.39537
-0.511732 -0.341729 0.45279
-0.370951 0.401875 0.572014
-0.395675 0.445141 -0.495708
-0.409926 0.570397 0.459863
-0.400182 -0.51083 0.412321
0.527099 -0.370946 0.343964
-0.59444 -0.24918 0.469439
-0.215833 0.391608 0.447134
-0.315676 0.477719 -0.477677
-0.482171 0.580736 0.447038
-0.34542 -0.526819 0.363292
0.563798 -0.389216 0.418298
-0.441682 -0.337097 0.334496
-0.340783 0.501747 0.574779
-0.410517 0.456988 -0.506477
-0.362954 0.414016 0.417361
-0.432848 -0.55589 0.515888
0.510141 -0.369431 0.408874
-0.468746 -0.338145 0.475936
-0.356391 0.42 0.451659
-0.316655 0.496688 -0.46586
-0.420915 0.567448 0.501463
-0.336504 -0.502001 0.5754
0.394386 -0.44791 0.474967
-0.440401 -0.379609 0.566145
-0.329185 0.521451 0.438779
-0.342274 0.39108 -0.454435
-0.304048 0.468491 0.455733
-0.380977 -0.493058 0.408917
0.459032 -0.439987 0.467517
-0.501059 -0.368144 0.44016
-0.427265 0.521992 0.550971
-0.278927 0.433454 -0.508513
-0.399432 0.520065 0.435153
-0.340982 -0.491456 0.509263
0.482291 -0.323876 0.479016
-0.495095 -0.358287 0.481845
-0.309885 0.519048 0.508549
-0.364495 0.494685 -0.531931
-0.402039 0.491875 0.417988
-0.351867 -0.557674 0.543317
0.496476 -0.327117 0.580697
-0.544622 -0.398642 0.479086
-0.372842 0.5183 0.519977
-0.339749 0.467146 -0.492898
-0.357152 0.47417 0.577987
-0.281478 -0.469883 0.453113
0.52676 -0.313395 0.485973
-0.520464 -0.259118 0.458816
-0.340306 0.549859 0.591008
-0.384964 0.503679 -0.572744
-0.382899 0.51184 0.468582
-0.308874 -0.495786 0.514134
0.479848 -0.264555 0.534475
-0.375738 -0.275734 0.440352
-0.335177 -0.455703 0.493727
-0.402051 -0.636264 -0.564761
-0.311005 0.489882 -0.494001
-0.355706 -0.455099 -0.606301
0.486918 -0.229081 -0.49174
-0.418647 -0.276124 -0.513168
-0.341019 -0.512383 0.505369
-0.238633 -0.37432 -0.590307
-0.351877 0.483138 -0.539653
-0.467306 -0.523505 -0.474671
0.460256 -0.274026 -0.455509
-0.446395 -0.380204 -0.465465
-0.248417 -0.493199 0.513343
-0.36509 -0.519607 -0.444236
-0.381419 0.547092 -0.517111
-0.349104 -0.502863 -0.439321
0.509428 -0.374663 -0.435043
-0.509562 -0.296159 -0.515439
-0.410141 -0.499863 0.499101
-0.352205 -0.501838 -0.500109
-0.434949 0.537578 -0.594828
-0.38777 -0.46832 -0.507969
0.55147 -0.284078 -0.489991
-0.394497 -0.301784 -0.463991
-0.34343 -0.449221 0.499533
-0.284274 -0.492624 -0.520734
-0.355592 0.539037 -0.448983
-0.403064 -0.513984 -0.36757
0.617772 -0.320808 -0.41974
-0.56537 -0.411145 -0.367365
-0.409792 -0.514682 0.505951
-0.363236 -0.418817 -0.40611
-0.320422 0.524945 -0.333155
-0.312982 -0.608142 -0.485097
0.555856 -0.306731 -0.456607
-0.494766 -0.355953 -0.462514
-0.322664 -0.46731 0.506276
-0.409417 -0.44911 -0.419715
-0.329846 0.485781 -0.424384
-0.312475 -0.551161 -0.318311
0.499526 -0.39031 -0.408005
-0.427125 -0.30244 -0.393708
-0.383117 -0.418935 0.50093
-0.274698 -0.498579 -0.530179
-0.279949 0.550426 -0.418451
-0.288954 -0.493661 -0.434407
0.507342 -0.347543 -0.392986
-0.568737 -0.264923 -0.373703
-0.263457 -0.396717 0.502543
-0.345541 -0.375025 -0.538878
-0.362678 0.477446 -0.485905
-0.314347 -0.53572 -0.46299
0.485818 -0.322943 -0.369706
-0.509388 -0.393514 -0.463144
-0.291371 -0.363223 0.402595
-0.502731 -0.42489 -0.462444
-0.296703 0.549822 -0.378362
-0.274552 -0.512907 -0.44158
0.555004 -0.347684 -0.455703
-0.454503 -0.421227 -0.380629
-0.311712 -0.428144 0.467946
-0.387813 -0.366557 -0.496275
-0.39011 0.430168 -0.39641
-0.318585 -0.538207 -0.474863
0.473496 -0.339387 -0.387579
-0.471591 -0.286952 -0.308068
-0.368999 -0.458599 0.528112
-0.374449 -0.387752 -0.459735
-0.402442 0.457317 -0.442274
-0.340843 -0.506901 -0.373854
0.492127 -0.325076 -0.395353
-0.521491 -0.172584 -0.347139
-0.35499 -0.370323 0.438009
-0.342074 -0.399927 -0.452789
-0.353855 0.474939 -0.399659
-0.360916 -0.510379 -0.43075
0.496433 -0.335334 -0.351987
-0.472747 -0.321366 -0.506701
-0.45415 -0.354595 0.491723
-0.455666 -0.311536 -0.571149
-0.364212 0.52108 -0.314655
-0.28851 -0.47812 -0.329666
0.535618 -0.326329 -0.384115
-0.449196 -0.312111 -0.386734
-0.344377 -0.370041 0.495107
-0.402909 -0.339768 -0.515832
-0.366299 0.462393 -0.36909
-0.373483 -0.483253 -0.363472
0.54706 -0.260964 -0.334223
-0.55272 -0.332533 -0.308936
-0.307648 -0.272459 0.482279
-0.267819 -0.390016 -0.512309
-0.398585 0.585085 -0.377517
-0.382023 -0.455397 -0.280413
0.465892 -0.411477 -0.406148
-0.544729 -0.39662 -0.352215
-0.42688 -0.278743 0.503577
-0.371352 -0.31624 -0.53191
-0.278606 0.507304 -0.294022
-0.406766 -0.473796 -0.317102
0.499433 -0.382443 -0.33912
-0.492588 -0.341372 -0.287132
-0.319008 -0.424478 0.562203
-0.383801 -0.227664 -0.530556
-0.344534 0.474668 -0.371456
-0.40073 -0.422107 -0.345122
0.323105 -0.37509 -0.403649
-0.536222 -0.333556 -0.343035
-0.365879 -0.335788 0.480547
-0.256164 -0.266102 -0.626338
-0.287956 0.496838 -0.310891
-0.35258 -0.494342 -0.349536
0.428078 -0.435157 -0.370162
-0.530383 -0.267423 -0.278401
-0.318083 -0.234621 0.521054
-0.307953 -0.279742 -0.534988
-0.347557 0.423452 -0.255389
-0.437053 -0.481813 -0.255701
0.472812 -0.361966 -0.351378
-0.543642 -0.271461 -0.218504
-0.305318 -0.376316 0.446112
-0.316172 -0.275195 -0.540203
-0.362978 0.556921 -0.209808
-0.360677 -0.50948 -0.319763
0.508186 -0.292138 -0.370126
-0.471576 -0.380656 -0.35041
-0.387171 -0.260653 0.459657
-0.284913 -0.205406 -0.517059
-0.27456 0.464091 -0.316384
-0.3586 -0.434571 -0.225804
0.414202 -0.32131 -0.207771
-0.501564 -0.366415 -0.29233
-0.398183 -0.253392 0.511424
-0.394735 -0.207279 -0.515117
-0.318806 0.465567 -0.387351
-0.391433 -0.482501 -0.267386
0.517375 -0.319146 -0.230152
-0.486414 -0.233804 -0.278146
-0.333015 -0.326808 0.471358
-0.35161 -0.26521 -0.482504
-0.3286 0.443343 -0.249365
-0.361384 -0.465343 -0.207943
0.563649 -0.29043 -0.342367
-0.535304 -0.290309 -0.29943
-0.349421 -0.169153 0.525436
-0.42047 -0.279004 -0.631901
-0.353863 0.568887 -0.290673
-0.36544 -0.550725 -0.310348
0.513766 -0.301524 -0.184561
-0.498998 -0.290862 -0.126421
-0.367762 -0.2171 0.491915
-0.330382 -0.210502 -0.472949
-0.275034 0.503921 -0.196745
-0.296357 -0.612391 -0.28026
0.50303 -0.325844 -0.209496
-0.433056 -0.353484 -0.242942
-0.310122 -0.178262 0.460508
-0.322461 -0.221008 -0.560751
-0.355843 0.527058 -0.239987
-0.326741 -0.425234 -0.295678
0.574184 -0.385983 -0.190539
-0.483007 -0.393651 -0.204899
-0.25959 -0.193516 0.398124
-0.34233 -0.23211 -0.496085
-0.26875 0.420347 -0.206345
-0.372156 -0.579744 -0.232637
0.5617 -0.361369 -0.173839
-0.484495 -0.335705 -0.261189
-0.403318 -0.132482 0.510916
-0.329192 -0.191199 -0.52468
-0.377043 0.567235 -0.248526
-0.302972 -0.526862 -0.288893
0.45454 -0.326213 -0.116013
-0.529036 -0.292592 -0.2205
-0.317205 -0.242848 0.481255
-0.404959 -0.153791 -0.57335
-0.37153 0.438459 -0.219663
-0.315824 -0.498311 -0.139949
0.56755 -0.348903 -0.177849
-0.475945 -0.446342 -0.166176
-0.364657 -0.145595 0.494731
-0.377941 -0.239405 -0.48983
-0.429089 0.452522 -0.212181
-0.362259 -0.487307 -0.231531
0.553068 -0.429379 -0.259164
-0.586083 -0.309719 -0.219749
-0.348624 -0.268022 0.56367
-0.383314 -0.20159 -0.424916
-0.328254 0.443906 -0.256164
-0.375242 -0.55251 -0.187282
0.480495 -0.387677 -0.205415
-0.538243 -0.226228 -0.141092
-0.391255 -0.174344 0.410804
-0.386373 -0.227216 -0.517419
-0.396197 0.515601 -0.22475
-0.32978 -0.599299 -0.204925
0.430046 -0.345549 -0.194819
-0.508246 -0.327968 -0.195739
-0.286804 -0.232548 0.487014
-0.441147 -0.0986461 -0.510671
-0.347842 0.515097 -0.156083
-0.325368 -0.461496 -0.123527
0.504524 -0.380387 -0.124157
-0.488014 -0.371558 -0.159388
-0.324912 -0.148683 0.593827
-0.368942 -0.171516 -0.42815
-0.341408 0.571133 -0.152093
-0.451397 -0.429978 -0.125623
0.405296 -0.333751 -0.146352
-0.510421 -0.353915 -0.133712
-0.330512 -0.160623 0.521283
-0.443223 -0.178978 -0.51778
-0.31109 0.474424 -0.131202
-0.371344 -0.503216 -0.151487
0.462811 -0.396157 -0.0350701
-0.502481 -0.383924 -0.0925867
-0.395257 -0.189764 0.512249
-0.399773 -0.119097 -0.522885
-0.400489 0.350096 -0.136311
-0.338344 -0.489545 -0.274738
0.525402 -0.237034 -0.127707
-0.518432 -0.335929 -0.164949
-0.364154 -0.0911313 0.5321
-0.337508 -0.266451 -0.466818
-0.334479 0.320912 -0.21802
-0.360851 -0.482792 -0.126291
0.495376 -0.380875 -0.21428
-0.490949 -0.366951 -0.136221
-0.284106 -0.102718 0.528732
-0.397663 -0.167971 -0.456447
-0.355327 0.509351 -0.130869
-0.354649 -0.486358 -0.0447776
0.527629 -0.333604 -0.151231
-0.448882 -0.350965 -0.130527
-0.306587 -0.0754312 0.424957
-0.38382 -0.185108 -0.518333
-0.431943 0.449783 -0.166399
-0.360145 -0.401615 -0.143287
0.501493 -0.352412 -0.0811612
-0.451541 -0.373366 -0.15872
-0.362937 -0.0450512 0.395567
-0.444145 -0.0962376 -0.373153
-0.329377 0.479725 -0.116949
-0.347179 -0.548187 -0.105319
0.531971 -0.232743 -0.0875827
-0.482553 -0.399398 -0.0680136
-0.315524 -0.137293 0.471143
-0.286902 -0.135366 -0.637425
-0.288382 0.492969 -0.213644
-0.310991 -0.485476 0.0172013
