ply
format ascii 1.0
comment sampling resolution: 0.01
comment noise level: 0.04
comment Created by Open3D
element vertex 1635
property double x
property double y
property double z
end_header
-0.517551 -0.0327215 0.254017
0.068735 0.162752 0.516091
-0.00710949 0.284033 -0.485873
-0.0295627 0.524945 0.267572
-0.000266129 -0.51705 0.270754
0.484841 0.0465379 0.255591
-0.491686 0.00657765 0.31114
0.0162061 0.243762 0.530924
0.0542936 0.280987 -0.549045
0.00220425 0.514418 0.222804
0.0806967 -0.469649 0.239876
0.47756 0.0674214 0.315039
-0.464905 0.0820076 0.268667
-0.053805 0.281428 0.518783
-0.00494098 0.314508 -0.509901
-0.0424089 0.495114 0.313218
0.0197463 -0.499563 0.227021
0.574056 0.00175019 0.35485
-0.532102 -0.00850315 0.323413
-0.0295515 0.29318 0.53464
-0.0163657 0.298175 -0.538646
-0.0339162 0.470697 0.242449
0.0784929 -0.483294 0.313185
0.528123 -0.0232939 0.303596
-0.441434 -0.0374321 0.227941
0.0217023 0.315093 0.496769
-0.0710945 0.302104 -0.467023
-0.025291 0.566522 0.321865
-0.0271222 -0.472447 0.329369
0.456578 0.0437539 0.315293
-0.476804 -0.0638347 0.292618
0.0552096 0.369895 0.474282
0.0148975 0.257695 -0.45476
-0.00540586 0.461344 0.336413
0.010252 -0.507626 0.292209
0.571856 0.0343297 0.370667
-0.508567 0.0243606 0.390707
-0.061421 0.286184 0.523403
0.00777283 0.28386 -0.442913
0.00359228 0.47772 0.361482
-0.0201926 -0.502071 0.397746
0.478225 -0.00632797 0.368268
-0.471094 0.0491196 0.323349
0.0382421 0.27992 0.502819
0.0297084 0.403938 -0.479358
0.0816013 0.490857 0.324635
-0.0553673 -0.504902 0.345331
0.527598 0.0202872 0.375824
-0.460148 0.0365517 0.285527
-0.0392286 0.393432 0.47856
0.0233373 0.338823 -0.50252
-0.0224827 0.538825 0.326505
0.0569029 -0.443185 0.34412
0.552038 0.0261426 0.364114
-0.558494 0.0203513 0.335147
-0.0164843 0.40185 0.512135
0.0650928 0.334074 -0.516772
0.0174968 0.562761 0.416189
0.0090775 -0.602716 0.358005
0.521246 -0.000607478 0.377977
-0.538748 -0.0880292 0.374315
0.0102248 0.405441 0.516964
0.0493845 0.404666 -0.440844
-0.036588 0.509873 0.372832
-0.00481526 -0.459339 0.347825
0.579859 0.0603467 0.411183
-0.554142 -0.0505384 0.253505
0.0158943 0.329834 0.43988
0.024634 0.339102 -0.496459
0.0349842 0.494254 0.449198
-0.0257677 -0.451776 0.343167
0.465776 0.00203335 0.355272
-0.537926 0.0804049 0.424332
-0.033095 0.364354 0.520934
0.0855522 0.334191 -0.506545
0.11251 0.526512 0.377075
0.0626657 -0.500835 0.311486
0.507582 0.0450935 0.438045
-0.468282 0.00136747 0.404987
0.0123204 0.450547 0.561654
0.0627224 0.410681 -0.577709
0.0425244 0.439172 0.464131
0.0229713 -0.505883 0.373925
0.493017 -0.0896884 0.429853
-0.553455 0.115558 0.449984
-0.058896 0.383939 0.572441
0.0293697 0.380783 -0.488751
0.0119399 0.512677 0.387334
0.0302155 -0.512153 0.416066
0.456039 0.00345978 0.489148
-0.518995 0.0328624 0.399039
0.00110501 0.383637 0.481502
0.0197849 0.388541 -0.463377
0.0744921 0.467973 0.397938
0.0829147 -0.598108 0.386768
0.509329 0.0476875 0.46488
-0.51205 0.0746409 0.422349
0.0272025 0.455058 0.497475
0.0776301 0.48628 -0.45287
-0.0297641 0.468416 0.394619
-0.0436328 -0.439074 0.36625
0.511829 0.0160334 0.493085
-0.519523 0.0563404 0.460539
0.0562893 0.424355 0.566508
0.0713931 0.385438 -0.638728
0.019479 0.563236 0.41151
0.0371209 -0.531337 0.440554
0.443388 0.0498241 0.424591
-0.534988 0.0495195 0.433603
0.0134304 0.445853 0.503088
-0.0737294 0.44915 -0.457917
0.068876 0.530799 0.394189
0.0327364 -0.545745 0.575391
0.464027 0.0456377 0.390292
-0.489086 0.0702462 0.480779
-0.00634309 0.444121 0.46725
-0.0417606 0.50045 -0.486198
-0.0263038 0.51908 0.394603
0.00391021 -0.502662 0.414387
0.524522 0.0371362 0.445816
-0.475273 0.0526616 0.485377
0.0172787 0.491185 0.439473
-0.0078479 0.48502 -0.530615
0.000390759 0.514099 0.499038
0.0239934 -0.512227 0.467038
0.498569 0.0156566 0.496678
-0.527426 0.0235154 0.487295
0.0310738 0.462871 0.513132
-0.0171476 0.465872 -0.505221
-0.0472458 0.520101 0.488096
-0.065125 -0.474246 0.552076
0.46796 -0.00870706 0.406859
-0.486173 -0.00887989 0.479804
-0.0160074 0.494779 0.546232
0.0941548 0.508488 -0.526271
0.0374755 0.540991 0.550909
0.0404957 -0.546188 0.54936
0.394838 0.0111126 0.470591
-0.507081 -0.0135881 0.463813
0.0750685 0.502567 0.470451
0.0268418 0.495777 -0.504107
-0.0619462 0.476783 0.525319
0.023663 -0.492901 0.496925
0.426656 0.00624008 0.477455
-0.456783 -0.0165979 0.550147
0.0675812 -0.557618 0.478615
0.0693827 -0.479387 -0.555775
0.0094167 0.570231 -0.523757
-0.0109385 -0.476638 -0.502258
0.498971 -0.00559193 -0.475482
-0.499497 0.044247 -0.504309
-0.050634 -0.514073 0.492819
0.0558175 -0.447528 -0.542338
0.0301548 0.568276 -0.432636
0.040452 -0.501139 -0.508193
0.510547 -0.00366894 -0.471132
-0.493593 0.0724684 -0.493893
-0.0428869 -0.517059 0.511886
-0.0129507 -0.503266 -0.5832
-0.0183996 0.588757 -0.528434
-0.0642332 -0.533388 -0.489161
0.512125 0.061981 -0.542769
-0.469274 -0.00826637 -0.458595
0.0420577 -0.43403 0.485719
0.0422406 -0.480766 -0.479043
0.0512287 0.471106 -0.468377
0.0376823 -0.419262 -0.458988
0.498308 0.0576249 -0.484687
-0.44569 -0.0140659 -0.433269
0.00480329 -0.494617 0.561056
-0.00488718 -0.526985 -0.488785
0.0315557 0.45608 -0.449783
-0.00380525 -0.520489 -0.454541
0.501488 0.00162103 -0.4737
-0.588673 0.0579275 -0.484173
0.0254611 -0.465323 0.453187
0.024212 -0.443942 -0.493773
0.0148605 0.484149 -0.524556
-0.0380191 -0.508977 -0.464193
0.504737 -0.0381816 -0.445674
-0.478643 0.0445713 -0.499119
0.098196 -0.365984 0.483018
0.0547613 -0.359235 -0.53815
0.0268225 0.486728 -0.303154
0.0532157 -0.517381 -0.42182
0.520822 0.131512 -0.412053
-0.552719 0.0626328 -0.444712
0.0455372 -0.458363 0.466406
0.0405253 -0.413277 -0.484194
0.0638103 0.448049 -0.409736
0.0625179 -0.509069 -0.393363
0.551117 0.0156209 -0.446242
-0.415243 0.021119 -0.49788
0.100057 -0.389971 0.494604
0.0494346 -0.461506 -0.472407
0.0138054 0.408522 -0.406659
0.00186017 -0.496029 -0.378652
0.462618 0.065926 -0.453407
-0.606056 -0.0667637 -0.436433
0.0807325 -0.457296 0.464389
0.0273318 -0.401158 -0.57028
-0.0428035 0.465369 -0.407753
-0.0685029 -0.463048 -0.394495
0.473625 0.0469779 -0.327026
-0.50291 0.0351615 -0.403274
0.0215652 -0.417359 0.500298
0.0535147 -0.448419 -0.586353
0.0245321 0.544992 -0.394413
0.045204 -0.495339 -0.365779
0.523807 0.0449085 -0.467186
-0.461498 0.041039 -0.388939
0.0424628 -0.395271 0.484172
0.0639894 -0.424809 -0.547358
0.00532187 0.441345 -0.443304
0.139804 -0.552812 -0.407871
0.468633 -0.0336964 -0.456757
-0.46758 -0.00619625 -0.380225
0.0134023 -0.393057 0.53883
0.0687624 -0.434034 -0.492053
0.0102972 0.552687 -0.377404
0.0399807 -0.425195 -0.355229
0.502884 0.131709 -0.379328
-0.534502 -0.036537 -0.376646
0.0404203 -0.379172 0.562237
0.00482274 -0.464789 -0.490266
0.0742212 0.438709 -0.381613
0.0352667 -0.573693 -0.384582
0.509365 0.0201577 -0.423194
-0.566727 0.0474879 -0.320104
0.0503989 -0.462456 0.477082
0.0842371 -0.359419 -0.470554
0.0358433 0.521441 -0.394501
0.0357877 -0.552179 -0.402084
0.546572 -0.0137013 -0.332376
-0.515948 0.0254055 -0.358761
0.046318 -0.3977 0.484637
-0.0292673 -0.331956 -0.481055
0.0557337 0.462715 -0.329131
0.0625166 -0.546388 -0.368283
0.513783 -0.0313011 -0.323357
-0.529094 -0.0177726 -0.378476
0.00548339 -0.341175 0.491637
0.00559077 -0.39626 -0.546262
-0.0467282 0.469958 -0.395276
0.0538029 -0.454102 -0.348779
0.516178 0.0904893 -0.371386
-0.395697 -0.00553034 -0.325896
-0.00150501 -0.300176 0.50957
-0.00573482 -0.290334 -0.511343
0.063312 0.464832 -0.336159
0.0226179 -0.460764 -0.348557
0.609941 0.018472 -0.267178
-0.519142 -0.0134952 -0.310308
0.0487277 -0.330756 0.524489
-0.0183254 -0.29115 -0.492441
0.039635 0.523105 -0.251317
-0.0177045 -0.507335 -0.3248
0.575869 0.00833334 -0.313404
-0.554006 0.0165515 -0.334493
0.0578483 -0.2748 0.566429
-0.00649968 -0.29477 -0.52598
0.0275683 0.534163 -0.334861
0.0202743 -0.511395 -0.310778
0.527759 0.0115296 -0.310672
-0.512333 0.0517618 -0.336812
-0.0035342 -0.2812 0.562455
-0.00763602 -0.311157 -0.518151
0.0443382 0.531365 -0.211566
0.0566532 -0.495998 -0.297686
0.507349 0.051346 -0.31275
-0.475121 0.0258953 -0.327476
0.0333426 -0.297464 0.560148
0.00480428 -0.228484 -0.425222
0.0146694 0.46063 -0.269709
0.0126875 -0.388166 -0.294756
0.451015 0.0552727 -0.341507
-0.492683 0.0228577 -0.310111
-0.0412303 -0.31998 0.5144
0.118931 -0.338344 -0.422376
-0.00137506 0.545441 -0.269548
0.055393 -0.521821 -0.245546
0.534361 0.0177803 -0.282361
-0.487094 0.0722747 -0.33352
0.0093014 -0.17694 0.551399
-0.0332056 -0.235956 -0.456147
0.0973357 0.530633 -0.233883
-0.0723818 -0.482977 -0.265849
0.512609 -0.0321718 -0.214251
-0.534373 -0.0128762 -0.257995
0.0375905 -0.240181 0.477443
0.0122939 -0.244713 -0.523548
-0.0165473 0.515736 -0.248421
0.00453695 -0.518867 -0.315938
0.549831 0.0171465 -0.297579
-0.526033 0.0911488 -0.233971
-0.0101635 -0.189415 0.477314
0.0545727 -0.242194 -0.501959
-0.0545346 0.512373 -0.186301
-0.0141929 -0.53952 -0.151376
0.552989 -0.0263246 -0.222656
-0.554863 0.0475753 -0.169383
0.0375749 -0.221885 0.479971
0.0190991 -0.323202 -0.503466
0.0389646 0.486427 -0.214259
0.0403561 -0.521013 -0.278855
0.554444 0.0446927 -0.219865
-0.471128 -0.0424143 -0.161987
0.0803572 -0.211443 0.477608
0.0716013 -0.228779 -0.50542
0.0282076 0.44846 -0.168511
-0.0187547 -0.53012 -0.225471
0.479512 0.0892172 -0.292052
-0.448353 0.064191 -0.212321
0.0390967 -0.19024 0.56771
-0.0190393 -0.238977 -0.441585
-0.0131575 0.526557 -0.259161
0.0688181 -0.512605 -0.170893
0.50677 0.0574139 -0.213879
-0.408739 0.0787691 -0.21887
0.0291929 -0.209176 0.506444
-0.0406009 -0.290578 -0.443412
0.00301313 0.493779 -0.272059
0.00319702 -0.588173 -0.182349
0.41606 -0.00905684 -0.197332
-0.527564 -0.0136219 -0.211382
-0.0171103 -0.241531 0.454011
0.0611967 -0.198274 -0.577591
-0.00243371 0.497871 -0.260718
0.0239137 -0.470955 -0.142779
0.418331 0.0145695 -0.118471
-0.461262 0.0769946 -0.271844
0.0854378 -0.226585 0.520343
0.00380994 -0.213557 -0.502132
0.038105 0.539761 -0.152972
0.0487894 -0.447982 -0.220754
0.523871 0.0365025 -0.17987
-0.526957 0.0917617 -0.138709
0.0454401 -0.132998 0.518192
0.0230075 -0.186448 -0.459579
0.00360061 0.569355 -0.154935
0.0756754 -0.486589 -0.169168
0.507469 0.100372 -0.238504
-0.50533 0.0793975 -0.168353
0.0693704 -0.13058 0.558692
0.0814249 -0.155474 -0.488281
0.068333 0.535613 -0.127608
0.0306128 -0.484752 -0.22117
0.397301 0.0476624 -0.136591
-0.483696 -0.0374973 -0.185599
-0.00923658 -0.12326 0.461551
0.0104694 -0.146917 -0.492512
0.000420426 0.534981 -0.187263
0.0443258 -0.494074 -0.21288
0.435409 0.00335168 -0.135706
-0.477 0.0473507 -0.245055
0.0520667 -0.0517209 0.486099
0.0357104 -0.135632 -0.473307
-0.0442844 0.482586 -0.200178
0.00608012 -0.488673 -0.150176
0.482388 0.078693 -0.19918
-0.492465 -0.0503013 -0.11704
0.00598293 -0.156594 0.476317
0.0354976 -0.0705832 -0.524643
0.0729518 0.463558 -0.120812
0.0082332 -0.409734 -0.173201
0.419472 -0.0670544 -0.125665
-0.513967 0.0473197 -0.163429
0.0152407 -0.0949865 0.518178
0.0428896 -0.0816265 -0.519462
0.108336 0.510925 -0.0688837
-0.0162562 -0.599713 -0.118406
0.518775 0.0381899 -0.143387
-0.377329 0.0217961 -0.101705
-0.0189898 -0.088291 0.524045
0.0644929 -0.159165 -0.509696
0.0402446 0.461258 -0.0849824
0.00988836 -0.495038 -0.118262
0.578701 0.0599951 -0.123455
-0.527809 0.0741673 -0.189789
0.0556582 -0.0107765 0.481111
0.0654934 -0.0855333 -0.449223
0.150079 0.519075 -0.0599806
-0.000495083 -0.468649 -0.0741044
0.519146 -0.012351 -0.168572
-0.518531 0.0561742 -0.136866
0.00571217 -0.129278 0.413651
0.090034 -0.0726066 -0.515663
0.056531 0.511264 -0.192556
0.0387001 -0.567549 -0.0361343
0.518122 -0.0395307 -0.119225
-0.425997 0.07136 -0.10183
-0.0335135 -0.0833892 0.446126
0.0137657 -0.12088 -0.486986
0.0255064 0.551272 -0.0796087
0.0358583 -0.501576 -0.0935724
0.515461 -0.0168886 -0.113326
-0.548745 0.143332 -0.0441599
0.105205 -0.0477274 0.451494
0.085531 -0.064972 -0.416258
0.0387027 0.500413 -0.0963719
0.00374971 -0.505548 -0.0639024
0.481665 0.0211033 -0.0628697
-0.493137 0.0826949 -0.105806
0.0351294 -0.094903 0.516445
0.031711 -0.0425918 -0.502732
0.00126056 0.466611 -0.0421161
-0.0438072 -0.507443 -0.0377842
0.485488 0.0129559 -0.0553166
-0.527188 0.0292135 -0.0953973
0.0696092 -0.0457777 0.550736
-0.0347896 0.0161743 -0.535276
0.0621789 0.495593 -0.0518458
-0.0500451 -0.515702 -0.108599
0.423436 0.0535487 -0.0374513
-0.457477 0.0340446 -0.0116517
0.0461294 -0.0142802 0.575854
0.132736 -0.0605435 -0.524818
0.0484875 0.517386 -0.0761689
0.032002 -0.563197 -0.103011
0.490719 0.125305 -0.0391055
-0.556092 0.0455592 -0.0624052
-0.0226885 0.0495067 0.553159
-0.0308196 -0.0317056 -0.498456
-0.0133319 0.531502 -0.101353
0.0308228 -0.537103 0.0276134
0.488484 0.0504567 -0.0165934
-0.445176 0.00239879 -0.0969171
0.00793128 -0.0549015 0.462992
-0.0187788 -0.0507212 -0.523181
-0.0460355 0.487412 -0.024459
0.0240401 -0.478605 -0.0118835
0.454043 0.0174261 0.00355003
-0.384892 0.01562 -0.0393244
0.0362707 0.0313905 0.500276
0.0762286 -0.0418593 -0.536836
0.0262838 0.500696 -0.0169326
0.0243017 -0.509527 -0.0245557
0.512857 0.0287087 -0.0845646
-0.479729 0.0349092 -0.00442942
0.000552025 5.00176e-05 0.460122
0.00467336 0.0181405 -0.487948
0.0248456 0.476141 0.0157348
0.0875998 -0.539705 0.00577622
0.505766 -0.0649275 0.0376397
-0.457635 0.000416725 -0.00106408
0.0736559 -0.0438217 0.404692
0.0688517 0.0174062 -0.538668
0.00740143 0.483456 -0.0111557
0.127623 -0.481338 -0.0113806
0.473565 0.0650667 0.0223831
-0.570823 -0.0272769 0.0348939
0.00276748 0.0350726 0.534276
0.0943381 0.0102514 -0.527884
0.00481572 0.529873 0.051976
0.107065 -0.511246 0.0677609
0.450983 0.0316451 -0.0984598
-0.502394 0.0378815 0.0232216
0.112108 0.0321199 0.491065
0.0398565 -0.0127043 -0.479933
-0.0560344 0.463051 -0.0125093
0.0164487 -0.485464 0.0406512
0.469594 0.0921969 0.0534927
-0.505371 0.0662023 0.0678587
0.014991 -0.0685398 0.527543
0.00167764 0.0141616 -0.511411
0.0490155 0.501241 0.0972513
-0.0132347 -0.472153 -0.0332541
0.523141 0.00217275 0.0999486
-0.51069 -0.0532366 0.0366812
0.0377518 -0.00862091 0.452299
0.0374454 0.0964565 -0.519178
0.0629037 0.488649 -0.00355467
0.0162241 -0.476475 0.00884776
0.485688 0.0485607 0.0802248
-0.494183 0.0271312 0.00033763
0.00783662 0.037192 0.529417
0.0317247 0.0314033 -0.476849
-0.0453445 0.480027 0.0837249
-0.0582502 -0.494835 0.0317105
0.528797 0.00824638 0.113214
-0.43541 -0.0141791 0.0312175
-0.0532227 0.0265038 0.542522
0.0247177 0.00566019 -0.422386
0.0642953 0.494912 0.054082
0.0306706 -0.532913 0.107348
0.507928 0.0439922 0.047801
-0.57858 -0.00728018 -0.00813154
0.0460716 0.103058 0.451436
-0.0683454 0.00650232 -0.464531
0.118884 0.520344 0.0625813
-0.0263537 -0.489758 0.0513565
0.546442 0.0568055 0.100558
-0.476414 -0.00690701 0.0409141
0.0420937 0.0819074 0.500083
0.0391465 0.100883 -0.466447
0.00814774 0.455596 0.0642864
0.075611 -0.52398 -0.013801
0.456757 -0.00105401 0.074478
-0.490358 0.0993123 0.0815042
0.0445822 0.080906 0.512272
-0.0840235 0.11418 -0.466059
0.0290422 0.485229 0.0900189
0.0142795 -0.475147 0.053764
0.519933 0.0129677 0.158672
-0.560297 0.0169795 0.0981166
0.0437561 0.166841 0.499201
0.142448 0.0887909 -0.471309
0.0111968 0.473879 0.102895
0.005868 -0.6329 0.108959
0.457149 0.0171438 0.082989
-0.469863 0.0689613 0.204199
0.0803532 0.0998702 0.470255
0.0841288 0.111839 -0.547486
0.015801 0.490394 0.109616
-0.00578966 -0.454492 0.150791
0.509741 0.0917905 0.126641
-0.55303 0.0808203 0.198751
-0.00968737 0.0912711 0.510785
0.0483814 0.169701 -0.529345
0.0431542 0.500637 0.141561
0.0317544 -0.491439 0.113843
0.475927 0.0185051 0.169413
-0.512576 0.0504732 0.159521
-0.021827 0.109926 0.473829
-0.0262884 0.149216 -0.46082
0.0691727 0.503861 0.158544
0.0833336 -0.497551 0.175969
0.512752 0.0313631 0.162851
-0.483217 -0.0312205 0.0955261
0.0734279 0.159545 0.547855
0.0392661 0.163284 -0.521932
0.00648303 0.429219 0.161517
0.0034253 -0.490097 0.151713
0.594451 0.028549 0.182705
-0.49827 0.0468132 0.109205
0.0518433 0.184066 0.478288
0.0182428 0.173307 -0.453216
0.039488 0.50389 0.198783
0.0831324 -0.501118 0.21479
0.487338 -0.0190338 0.121385
-0.497217 0.012979 0.209172
-0.0587701 0.188396 0.514737
-0.00847963 0.171796 -0.585262
0.105312 0.490878 0.131582
0.0569517 -0.418489 0.173903
0.479974 -0.000616684 0.1514
-0.552006 0.00569653 0.135242
0.0230394 0.209424 0.484453
-0.00646913 0.134937 -0.601694
0.0343473 0.507209 0.135805
0.0595841 -0.441848 0.116328
0.508343 -0.0178571 0.272908
-0.458457 0.0378011 0.220397
0.12124 0.187194 0.525145
0.0459851 0.248743 -0.499922
0.0753057 0.474985 0.158624
0.0663716 -0.512318 0.175692
0.441271 0.0059848 0.185666
-0.468229 0.0362152 0.138287
-0.00647436 0.161619 0.545927
0.0479276 0.162703 -0.436943
-0.0243084 0.417555 0.191093
0.0447767 -0.488531 0.210573
0.4715 -0.0239681 0.185791
-0.533837 0.0462221 0.135419
-0.00186168 0.226559 0.519444
0.0379339 0.239297 -0.477128
0.0817783 0.480509 0.189486
0.0394181 -0.510435 0.15799
0.453308 0.0173545 0.23302
-0.569996 0.0119174 0.158897
0.0913774 0.229973 0.531329
0.110062 0.208975 -0.444828
0.0326395 0.484265 0.228588
-0.00922139 -0.49441 0.194547
0.497188 0.0596878 0.280286
-0.481715 -0.0500307 0.257847
-0.0290334 0.144255 0.519682
0.0129431 0.249358 -0.54315
0.0696251 0.545923 0.256924
0.021659 -0.503085 0.248981
0.515635 0.0368072 0.287005
-0.491456 -0.0179655 0.213378
0.0777759 0.234271 0.475518
0.0632235 0.219488 -0.511214
-0.00230599 0.531169 0.266774
0.00556761 -0.518972 0.161836
0.46041 0.145176 0.264528
-0.555152 -0.0303365 0.223154
-0.0213422 0.203805 0.51606
0.0161471 0.299036 -0.496392
0.00539485 0.554341 0.230588
-0.0204928 -0.434076 0.318503
0.531992 0.0781893 0.264284
-0.552234 0.00605611 0.180008
0.0641799 0.269257 0.513982
0.0257436 0.260077 -0.55706
0.0326099 0.442763 0.240314
0.0681543 -0.525331 0.245305
0.586339 0.000275818 0.231356
-0.542972 0.0139549 0.207604
0.0331419 0.299994 0.479334
-0.0248169 0.226074 -0.515048
0.0194333 0.505896 0.196846
0.0216938 -0.538173 0.252932
0.515971 0.0141406 0.251428
-0.551196 0.0901408 0.238032
-0.0273757 0.273021 0.433282
0.1088 0.227937 -0.504817
0.0201899 0.49598 0.319275
0.0509002 -0.497258 0.295384
0.537123 0.0807049 0.325327
-0.509436 0.01152 0.344188
0.0570009 0.356613 0.530703
-0.0240781 0.276387 -0.475366
0.0404524 0.510427 0.283352
0.0501315 -0.555965 0.333547
0.468259 0.122842 0.239802
-0.565487 0.0560801 0.273581
-0.00543515 0.318057 0.473528
0.0232319 0.353113 -0.535442
0.0366484 0.441558 0.306672
-0.0389531 -0.524165 0.338208
0.434907 0.0403922 0.323972
-0.58176 -0.0241699 0.320275
0.01463 0.300825 0.514226
0.0794172 0.296832 -0.476871
0.0279121 0.472532 0.251713
0.0939966 -0.545364 0.308307
0.498734 -0.00798273 0.297508
-0.56445 -0.0333179 0.304314
0.0421303 0.311293 0.520969
0.0629075 0.412853 -0.499852
0.0732567 0.479501 0.307085
0.0370246 -0.542807 0.284956
0.453365 0.00929131 0.361554
-0.434131 0.0426307 0.237086
0.0562213 0.341145 0.475706
0.0878391 0.258274 -0.511604
0.0632829 0.508243 0.356474
0.0141368 -0.541039 0.313976
0.459363 0.00765036 0.345915
-0.473498 0.0425978 0.358638
0.0469646 0.335194 0.480229
0.00103868 0.373939 -0.492252
0.0251974 0.518035 0.302053
0.0199633 -0.499886 0.39091
0.469472 0.0532585 0.353809
-0.449103 0.0634285 0.357445
0.0727126 0.327323 0.493433
0.0733588 0.344022 -0.574329
0.0286751 0.474095 0.371045
0.0399415 -0.476374 0.374719
0.460564 -0.0120249 0.380291
-0.524689 0.0829734 0.363012
0.0231225 0.380899 0.496701
0.0214543 0.340937 -0.531971
0.00277492 0.471466 0.335019
0.0488778 -0.503844 0.343605
0.462497 0.0198593 0.36553
-0.485328 0.0369539 0.358333
-0.0325101 0.386348 0.486966
0.0329426 0.343928 -0.484723
-0.012085 0.406422 0.419701
0.0238754 -0.446717 0.362165
0.490666 0.0634633 0.363225
-0.468012 0.0337102 0.412765
0.0455314 0.365954 0.532456
0.00349697 0.379311 -0.529044
0.0276359 0.48677 0.355456
0.0387147 -0.473928 0.425281
0.436628 0.014678 0.397362
-0.543412 -0.0177574 0.396791
-0.0359401 0.399211 0.491226
-0.00630626 0.405515 -0.531316
0.060938 0.552267 0.336591
-0.0129763 -0.551422 0.393949
0.477703 -0.111899 0.407838
-0.489787 -0.0207593 0.357525
0.0392729 0.396132 0.44437
0.0269289 0.443298 -0.578398
0.000839646 0.457472 0.46304
-0.0920725 -0.47138 0.318724
0.493141 0.0477243 0.448314
-0.452563 0.078913 0.391349
0.0148146 0.416002 0.425269
0.0324964 0.411617 -0.573121
0.0242023 0.566302 0.385988
0.107269 -0.500135 0.411021
0.548406 0.0218003 0.473887
-0.468293 -0.0682992 0.457314
-0.0129277 0.41329 0.461082
0.0659151 0.434243 -0.535225
0.0485763 0.558581 0.406134
0.0334997 -0.389708 0.356369
0.525981 0.0208673 0.364211
-0.500941 0.0394977 0.428917
0.0392651 0.411784 0.416659
0.0194708 0.388013 -0.545128
-0.0495958 0.446486 0.450079
-0.0273525 -0.472235 0.439341
0.464728 0.0164292 0.448497
-0.497518 0.0789497 0.453542
-0.0401261 0.438909 0.572464
0.013949 0.479226 -0.498538
0.0374081 0.490069 0.455042
0.0118806 -0.505589 0.385573
0.499864 0.0297199 0.46873
-0.555836 0.0488339 0.441984
-0.00713548 0.42499 0.447981
0.0980209 0.381573 -0.498172
0.061027 0.506063 0.404932
0.0152126 -0.513787 0.446778
0.473296 0.0965446 0.479944
-0.451904 0.0468244 0.395217
0.0346697 0.445081 0.57815
-0.00281812 0.46067 -0.495911
0.0557986 0.546929 0.45786
0.0332388 -0.54778 0.527332
0.482129 -0.0922958 0.422971
-0.592669 0.000477895 0.417817
0.0546725 0.53382 0.434802
0.0452432 0.527607 -0.459153
-0.018666 0.56031 0.491432
0.0398204 -0.520149 0.540541
0.477529 0.0337937 0.423934
-0.518764 -0.00553835 0.468954
0.00889098 0.498456 0.442218
0.0297119 0.425431 -0.492685
0.0068828 0.491139 0.509656
0.0296175 -0.505547 0.538207
0.471129 0.0269967 0.496639
-0.49186 0.0412711 0.512369
0.0647552 0.47703 0.453328
0.0210561 0.469691 -0.507319
-0.0775719 0.465061 0.485321
-0.028032 -0.529188 0.525523
0.467452 0.00461438 0.432896
-0.468217 0.0840103 0.51656
0.0225438 0.497514 0.459564
0.00725481 0.481985 -0.539304
0.0499921 0.474859 0.405344
0.0568647 -0.422558 0.544567
0.466874 -0.000550929 0.484531
-0.479273 -0.00276959 0.559306
0.0851811 -0.560521 0.485107
0.035346 -0.479589 -0.507788
0.0254612 0.528544 -0.478682
0.0212188 -0.471551 -0.512669
0.443111 0.0636428 -0.498355
-0.535512 -0.0138424 -0.551554
0.00287276 -0.478623 0.51674
0.0781762 -0.505429 -0.567276
0.0466444 0.507936 -0.448855
0.0576865 -0.499071 -0.445873
0.491893 0.108524 -0.608529
-0.460289 0.042016 -0.454482
0.0518502 -0.49689 0.520925
-0.015287 -0.440973 -0.444647
0.0287987 0.540584 -0.484961
0.0583424 -0.505157 -0.497221
0.466623 0.0424213 -0.38832
-0.492548 0.00566321 -0.538139
-0.00785516 -0.435654 0.526409
0.0703751 -0.508267 -0.428423
0.0146813 0.448668 -0.516511
0.0559341 -0.52934 -0.464376
0.558212 0.0905049 -0.512583
-0.46449 -0.0309594 -0.525358
0.0686037 -0.451336 0.613618
0.0489426 -0.403198 -0.499173
0.040223 0.572435 -0.485825
0.00742234 -0.503835 -0.451566
0.437521 0.123355 -0.405519
-0.46768 0.0415479 -0.468379
0.0515267 -0.512635 0.510726
0.0357826 -0.465342 -0.493296
0.0105752 0.555136 -0.386613
0.0836047 -0.478595 -0.476543
0.47694 -0.00795521 -0.477029
-0.539928 -0.0136793 -0.444333
-0.0308555 -0.417965 0.566382
0.0786384 -0.42152 -0.557419
0.0138032 0.578682 -0.450023
-0.020673 -0.546628 -0.394514
0.530545 0.0605352 -0.424709
-0.55352 0.0137178 -0.466294
0.0982301 -0.41051 0.506241
0.0648131 -0.446363 -0.500623
0.04652 0.530052 -0.349062
0.0276047 -0.514177 -0.448844
0.493918 -0.0163103 -0.424835
-0.527771 0.0590072 -0.449071
0.0417624 -0.4589 0.531195
0.0398941 -0.417135 -0.619631
0.064413 0.432471 -0.428233
0.0422016 -0.474476 -0.483198
0.421233 0.0551521 -0.499176
-0.474979 0.0309538 -0.389985
-0.00239123 -0.447721 0.480488
0.0189886 -0.357829 -0.499949
0.0572893 0.582508 -0.426248
0.0139706 -0.502174 -0.412116
0.517293 -0.0030757 -0.394009
-0.562981 -0.052287 -0.418462
0.0321803 -0.419856 0.479031
0.0596997 -0.389083 -0.495766
0.036338 0.48327 -0.434912
0.0350166 -0.464596 -0.440785
0.444392 0.112992 -0.331078
-0.536478 0.0501109 -0.357205
0.080162 -0.467514 0.425737
0.0253886 -0.386607 -0.512814
0.0627244 0.526814 -0.35872
-0.0526924 -0.434124 -0.331768
0.531652 0.0801356 -0.36953
-0.538639 0.0869912 -0.383305
0.0505401 -0.299635 0.529253
0.0449325 -0.428138 -0.480362
-0.000658457 0.451738 -0.398024
0.0804163 -0.516413 -0.399631
0.476423 0.000758154 -0.334674
-0.543235 0.114621 -0.331195
0.066387 -0.348417 0.499295
0.000551405 -0.319396 -0.449245
0.0486145 0.489971 -0.347159
-0.0130637 -0.448288 -0.344922
0.537645 -0.00113276 -0.363637
-0.491154 0.0181036 -0.332125
0.0765608 -0.355125 0.526367
0.0844378 -0.270103 -0.500212
0.0421874 0.544909 -0.41011
0.0347304 -0.492239 -0.39908
0.492776 0.0461898 -0.369758
-0.510131 0.00377465 -0.41736
0.0072534 -0.345653 0.517976
0.074036 -0.367024 -0.567223
0.0438135 0.525531 -0.326835
0.0616397 -0.5322 -0.383484
0.496692 0.0895643 -0.344398
-0.466388 -0.0130681 -0.391774
0.00864868 -0.286408 0.4084
0.0317574 -0.364563 -0.563034
0.0355057 0.463561 -0.276542
0.0560097 -0.43518 -0.324472
0.520787 0.0409443 -0.415825
-0.487182 -0.0236288 -0.408202
-0.0288985 -0.304455 0.49652
0.0570094 -0.410238 -0.492067
0.100963 0.440763 -0.365319
0.0476874 -0.511106 -0.373772
0.459515 0.0905565 -0.363925
-0.469386 0.0777409 -0.314377
-0.0632898 -0.308185 0.433235
0.122955 -0.264541 -0.520922
0.0956123 0.511197 -0.316118
0.00218301 -0.45751 -0.265439
0.543506 0.0350317 -0.394538
-0.494676 0.00336217 -0.288061
0.0579838 -0.323903 0.525333
0.0518098 -0.401597 -0.605827
0.0651952 0.53235 -0.372879
0.0320028 -0.521152 -0.27891
0.441639 -0.034479 -0.358555
-0.479544 0.0593957 -0.292905
0.00125043 -0.237086 0.517696
0.082713 -0.318397 -0.474831
0.0870277 0.518942 -0.300644
0.0338607 -0.533446 -0.358442
0.521633 0.00130024 -0.278517
-0.531954 0.043032 -0.284274
0.0100452 -0.285973 0.567024
0.0590929 -0.292104 -0.455507
0.0548656 0.476576 -0.248562
0.0252904 -0.553829 -0.330641
0.535325 0.0512392 -0.253743
-0.412497 -0.0352627 -0.299369
0.0757923 -0.307445 0.485861
0.0932878 -0.247845 -0.484325
0.112198 0.473708 -0.21797
-0.0360301 -0.505323 -0.342097
0.537867 0.0374577 -0.288745
-0.498321 0.0511433 -0.270611
0.0269227 -0.20602 0.453794
0.0174632 -0.35403 -0.498104
-0.000844616 0.467938 -0.245146
0.0201406 -0.454187 -0.274599
0.516303 0.0534345 -0.272011
-0.505872 0.0717642 -0.290304
-0.0204557 -0.279481 0.474794
0.0256032 -0.254287 -0.626631
0.0626114 0.50178 -0.263237
0.00810602 -0.492632 -0.269839
0.444179 -0.0197167 -0.260692
-0.488539 0.0966214 -0.227742
0.0244496 -0.241371 0.448446
-0.0172599 -0.219251 -0.461758
0.0151505 0.43558 -0.283123
-0.00538907 -0.499247 -0.17228
0.543507 0.0604284 -0.261697
-0.498718 0.133654 -0.247279
0.0144448 -0.216854 0.490965
-0.0750845 -0.325442 -0.547391
0.0717679 0.519032 -0.250782
-0.0288791 -0.441721 -0.26068
0.440004 0.0352744 -0.126382
-0.53986 0.0462578 -0.19941
0.0290386 -0.243565 0.506615
0.117503 -0.229747 -0.563542
0.00106364 0.501369 -0.222617
-0.00651259 -0.508369 -0.217581
0.527758 -0.0197458 -0.187487
-0.576638 0.0468486 -0.254426
0.0208027 -0.260093 0.445767
0.0538264 -0.223928 -0.495806
0.0467946 0.470187 -0.304478
-0.00701363 -0.453431 -0.201187
0.531013 0.0775271 -0.144623
-0.474397 0.00327735 -0.285388
0.112109 -0.198708 0.47368
0.0240787 -0.301235 -0.431516
0.0225387 0.517468 -0.19458
0.0797076 -0.456527 -0.211579
0.551545 0.031528 -0.203005
-0.478905 0.0714717 -0.261178
0.0852495 -0.199297 0.471937
0.0378549 -0.195732 -0.446482
-0.0994184 0.510593 -0.217862
0.0344071 -0.501905 -0.122717
0.46368 0.0198287 -0.139079
-0.516665 0.0125808 -0.196005
0.013805 -0.185764 0.450678
0.00355179 -0.151011 -0.511541
0.117745 0.434993 -0.233303
-0.011548 -0.520794 -0.11566
0.427338 0.0554303 -0.186287
-0.506502 0.0562528 -0.204201
0.114207 -0.179652 0.600739
-0.0138398 -0.271675 -0.588865
0.0098719 0.560755 -0.20021
0.016842 -0.462684 -0.175015
0.53038 -0.00306739 -0.173747
-0.520916 0.0203632 -0.199795
0.009365 -0.130867 0.52723
0.0323626 -0.21334 -0.451612
0.0806663 0.497415 -0.204501
-0.0165038 -0.481643 -0.260293
0.515726 -0.0144419 -0.167505
-0.510063 -0.000762565 -0.184204
0.0363275 -0.186165 0.508987
0.0515223 -0.0829266 -0.47649
0.0102816 0.516765 -0.12659
0.104711 -0.515775 -0.150094
0.549853 0.0753935 -0.113971
-0.497028 -0.000984796 -0.114427
0.0225073 -0.182561 0.480201
0.0180211 -0.0827049 -0.489005
0.0997159 0.47515 -0.143177
0.0885547 -0.449456 -0.200562
0.399713 0.0544558 -0.185581
-0.47273 -0.0323841 -0.174551
0.0773436 -0.14081 0.457936
0.0472234 -0.137296 -0.537268
0.0760286 0.421606 -0.214049
0.0275644 -0.513723 -0.11798
0.508965 0.0587878 -0.173294
-0.432054 0.0458124 -0.166341
0.0525663 -0.100492 0.518152
-0.0293771 -0.130019 -0.545385
-0.0224441 0.489393 -0.129599
0.0148156 -0.452037 -0.123469
0.504557 0.056193 -0.0937312
-0.464615 0.053796 -0.104807
0.00785783 -0.141145 0.495252
0.0852354 -0.142944 -0.505461
0.0420523 0.52883 -0.15912
0.0416088 -0.467542 -0.0968669
0.483013 -0.0108355 -0.116441
-0.520708 0.00662047 -0.137569
0.0192667 -0.116829 0.562757
0.048476 -0.0910406 -0.569519
0.0971201 0.521155 -0.125293
-0.0117648 -0.493252 -0.208463
0.52278 0.0819547 -0.158974
-0.457138 0.038428 -0.110605
0.0242974 -0.0836556 0.55661
0.0595891 -0.0777689 -0.509498
0.00966789 0.40313 -0.134511
-0.00838202 -0.459687 -0.117887
0.484718 -0.0328436 -0.0922913
-0.505391 0.0344667 -0.0312872
0.0422716 -0.069975 0.513633
0.0333974 -0.0292153 -0.473889
0.0523074 0.451431 -0.110681
-0.0294473 -0.516719 -0.0714106
0.459023 0.0197054 -0.0398454
-0.544288 0.0902107 -0.0289882
-0.0111538 -0.126276 0.467401
0.0256399 -0.0787654 -0.51258
-0.0281265 0.540556 -0.0400339
0.0391393 -0.476813 -0.0347847
0.549827 0.0520101 -0.038885
-0.416477 0.0356558 -0.0252949
0.062636 -0.0816908 0.468106
0.0541084 -0.0536918 -0.476955
-0.00792261 0.493524 0.0251017
0.0504917 -0.416839 0.00598086
0.474727 0.0607525 -0.103091
-0.372026 0.0152064 -0.069588
0.024753 -0.0793154 0.554224
0.0222668 -0.0274001 -0.472067
0.0440979 0.509311 0.0133399
0.023984 -0.564375 -0.0142514
0.587176 0.0429817 -0.0564224
-0.491613 0.0328441 -0.0865346
0.0706624 0.00593074 0.497369
0.0823406 -0.0310327 -0.530112
0.0306524 0.486806 -0.06231
0.0177192 -0.486444 0.0353508
0.490024 0.0183798 -0.0337349
-0.516188 -0.0110917 -0.104668
0.0640018 -0.0535385 0.562554
0.0373144 -0.0303443 -0.466012
0.0468772 0.48819 -0.0169941
0.0390535 -0.483676 -0.051786
0.553636 -0.0558316 -0.111079
-0.557371 -0.00278326 -0.0382885
-0.0108748 -0.00808429 0.485113
0.0209077 -0.0103486 -0.548372
-0.0376858 0.544948 0.000451666
-0.0105235 -0.418715 -0.00612507
0.472605 -0.00300872 -0.025452
-0.502945 0.0723731 -0.0513008
0.0531612 -0.113902 0.549492
0.0178605 -0.0396312 -0.467652
0.0273006 0.46206 -0.0795275
0.0294558 -0.526522 -0.0457809
0.487737 0.0669061 -0.0196698
-0.555465 0.0536705 -0.0512448
0.0792133 0.0100687 0.550794
0.0984347 0.115094 -0.484294
-0.0243943 0.537342 -0.034115
-0.0350232 -0.509499 0.0126771
0.440725 0.0435895 0.00745196
-0.583654 0.0361424 -0.0290355
0.0603584 -0.00745375 0.402234
-0.0454127 0.0144293 -0.486323
0.0320399 0.453626 0.0390481
0.0657418 -0.538866 0.0425548
0.48068 0.00441771 0.0122474
-0.515077 0.0314547 -0.0109845
-0.0402322 0.00724657 0.512581
0.0461299 0.0153877 -0.495495
0.0314883 0.40392 0.00708128
0.0155389 -0.485594 0.00369018
0.462193 0.0209019 0.0484408
-0.551174 0.0158314 -0.0116685
0.135779 0.0523628 0.437969
0.00141703 0.0857995 -0.540032
0.00174782 0.478204 0.0616499
0.060009 -0.521678 0.0090097
0.413746 0.0556635 0.00643885
-0.506128 0.0822758 0.00423681
0.0344312 0.0379958 0.49303
0.0504403 0.0388841 -0.541503
0.0452032 0.484351 0.00450237
0.0261228 -0.550535 0.0451217
0.423206 0.0751142 0.046317
-0.467817 0.0210747 0.0107988
0.0519746 0.0875547 0.418784
-0.0308779 0.0847203 -0.559353
-0.0215782 0.551636 0.059093
0.000840543 -0.562704 0.0730503
0.490642 0.054362 0.0454962
-0.528962 0.0316244 -0.0174536
0.0933271 0.0105539 0.485607
0.0587454 0.088104 -0.457556
0.0155249 0.558121 0.0547569
-0.0244698 -0.482413 0.107773
0.453614 0.0802235 -0.018653
-0.412605 0.127468 0.150498
-0.0456441 0.0254031 0.445917
0.022026 0.0575738 -0.49259
0.0401372 0.574273 0.0691569
0.0318806 -0.381131 0.038626
0.520418 0.014479 0.0662466
-0.516178 0.068633 0.0958176
0.0729236 0.0530241 0.516045
0.0553289 0.0896451 -0.444951
-0.0564781 0.574712 0.0733997
0.080166 -0.648205 0.100553
0.472287 -0.00558258 0.0723651
-0.497518 0.0595193 0.144899
0.102013 0.107294 0.550338
0.112156 0.119312 -0.499587
0.0228169 0.436619 0.0916044
0.0956686 -0.466092 0.0451362
0.48965 0.0448725 0.112038
-0.532408 0.056598 0.0668118
0.0505722 0.158085 0.540773
0.0767591 0.0699587 -0.555541
0.0260954 0.54431 0.101552
-0.0532377 -0.483726 0.121872
0.52321 -0.00560589 0.0948695
-0.512307 0.0366368 0.0747257
0.132871 0.161621 0.550725
0.0805584 0.136456 -0.501875
-0.00897466 0.404877 0.0876242
0.0867603 -0.481807 0.0873201
0.558647 0.0213367 0.0503367
-0.479831 0.0401915 0.08315
0.0216774 0.0705311 0.483748
0.059531 0.0910315 -0.50902
0.0575515 0.426401 0.139617
-0.01996 -0.54571 0.106544
0.450466 0.023216 0.0530576
-0.44146 -0.0720525 0.0613262
0.0516924 0.103515 0.514427
0.0251643 0.142984 -0.561791
0.0799373 0.442127 0.196342
0.0640831 -0.515509 0.126024
0.532779 -0.012709 0.0648303
-0.527417 0.0451157 0.116837
-0.00293458 0.0788241 0.527061
0.040604 0.101845 -0.463303
0.0644679 0.486929 0.17079
-0.0505799 -0.504146 0.0720056
0.472828 0.0183945 0.16404
-0.47927 0.0449319 0.110154
0.0928561 0.166154 0.465041
0.09053 0.148343 -0.486092
0.000274352 0.484736 0.170392
0.0159178 -0.526472 0.159956
0.573757 0.0895792 0.197897
-0.455085 0.0278027 0.14137
0.0616142 0.172882 0.478111
0.0459869 0.214009 -0.541041
0.0495175 0.482082 0.168398
0.00374353 -0.488168 0.191857
0.472939 0.0414193 0.160205
-0.46417 0.114503 0.121651
0.0487377 0.155904 0.471157
0.0254676 0.142805 -0.486869
0.0492258 0.380263 0.234014
0.0603007 -0.466835 0.197998
0.513609 0.0475191 0.184143
-0.488236 -0.0178318 0.209216
0.0522879 0.184963 0.485279
0.0101322 0.188992 -0.497106
0.0506723 0.473726 0.149926
0.0677979 -0.464496 0.119896
0.538712 0.00568811 0.185117
-0.533094 0.0794289 0.136037
0.0212361 0.274479 0.497903
0.0419311 0.250792 -0.498542
0.0159572 0.539489 0.198912
0.0484767 -0.482125 0.16246
0.510765 0.0831713 0.151708
-0.535649 -0.0101597 0.140675
0.0537366 0.182753 0.480649
0.0357947 0.186976 -0.527084
0.106025 0.425669 0.226205
0.0681557 -0.455372 0.185187
0.585961 0.0730334 0.207479
-0.574025 -0.0299388 0.17778
0.0386582 0.190359 0.494267
-0.030899 0.204418 -0.493691
0.0747184 0.507505 0.301113
-0.00921604 -0.560615 0.207989
0.440439 0.0598586 0.146215
-0.498185 0.0865787 0.198795
0.00844135 0.234 0.449004
0.00300554 0.219099 -0.538818
-0.00827834 0.505268 0.237414
-0.0459194 -0.544007 0.248193
0.510153 0.015673 0.248163
-0.515608 0.0974736 0.225094
0.0765 0.213429 0.492864
0.0410032 0.292485 -0.537316
0.0151005 0.469126 0.251074
0.0363266 -0.54362 0.219929
0.410482 -0.016139 0.187133
-0.565972 0.062065 0.20329
0.00123676 0.270903 0.41515
0.0725597 0.222627 -0.477256
-0.00957275 0.514753 0.270308
0.024085 -0.479256 0.29976
0.550722 0.0209025 0.283516
-0.51878 0.0655587 0.250781
-0.0402618 0.268518 0.481805
0.0338733 0.251459 -0.524894
-0.0165187 0.486936 0.212288
0.0351666 -0.533059 0.21231
0.422586 0.00690708 0.192219
-0.484896 -0.00687801 0.22513
0.0555255 0.193388 0.489981
0.0892559 0.206816 -0.496069
0.040648 0.521824 0.272215
-0.0708635 -0.505326 0.235373
0.464308 0.0189888 0.231259
-0.475295 0.048135 0.248453
0.00500729 0.178436 0.539784
0.0542276 0.288785 -0.514932
0.00937468 0.507544 0.302727
0.074376 -0.512184 0.184223
0.549175 -0.0230995 0.349196
-0.519731 0.0334427 0.244
0.072632 0.301261 0.464945
0.0191216 0.195059 -0.493388
0.0776438 0.534197 0.187069
0.0735163 -0.496451 0.322781
0.55529 0.1474 0.275513
-0.484907 0.0486977 0.316358
0.114579 0.276028 0.49881
0.0116872 0.341858 -0.520778
-0.03053 0.506875 0.262536
0.011305 -0.391917 0.293479
0.528835 0.0020792 0.32097
-0.513083 0.0536385 0.259762
0.025122 0.278312 0.544382
-0.0529135 0.301347 -0.477125
0.0443114 0.572159 0.30906
0.0201681 -0.427609 0.265978
0.515309 0.0487681 0.329071
-0.514171 0.00861381 0.340754
0.0271132 0.268085 0.489756
-0.00364814 0.361277 -0.492464
0.0325688 0.492374 0.29493
0.0697624 -0.435033 0.307019
0.52428 0.00974439 0.329972
-0.553195 0.0723295 0.236888
0.0600015 0.257153 0.521834
0.0141526 0.316174 -0.579397
-0.00662161 0.519637 0.348178
0.0304907 -0.453713 0.337006
0.502376 0.0524878 0.33382
-0.482481 -0.0226239 0.315594
0.00358839 0.3609 0.585371
-0.0293509 0.371656 -0.485779
-0.00588919 0.484226 0.384982
-0.0156577 -0.463408 0.306779
0.534074 0.043317 0.27091
-0.514281 0.0978837 0.356511
0.0109919 0.379813 0.512755
0.0726566 0.353615 -0.450742
0.0577418 0.517616 0.35306
-0.0340577 -0.492729 0.328249
0.521838 0.0655758 0.302446
-0.54976 0.0988955 0.369562
0.0693354 0.292829 0.50357
0.0683732 0.344555 -0.458806
0.0124094 0.547527 0.418052
0.0545888 -0.513849 0.274738
0.50781 -0.00664457 0.306245
-0.444666 -0.0168324 0.317403
0.123424 0.314182 0.467731
0.0310103 0.359206 -0.462866
0.078125 0.48718 0.34063
-0.0530701 -0.522293 0.333764
0.504375 0.00448328 0.313102
-0.494408 0.100853 0.331624
0.0687648 0.409147 0.493832
0.0172573 0.366752 -0.527766
0.0473423 0.538336 0.321029
0.05158 -0.533627 0.370976
0.442314 0.0618662 0.353935
-0.469146 0.0710966 0.320826
-0.0412698 0.403364 0.49728
0.0137621 0.323148 -0.492047
0.0611252 0.5588 0.361544
0.0401869 -0.55222 0.376695
0.542792 -0.00564519 0.338015
-0.458867 0.00717323 0.359504
0.000204234 0.393296 0.448588
0.070258 0.418326 -0.563985
0.00573997 0.546255 0.416502
0.0297771 -0.500003 0.358834
0.565738 0.0342247 0.410523
-0.477223 -0.00412117 0.413521
0.0508491 0.411436 0.530888
-0.0461475 0.402434 -0.424846
0.0642605 0.552019 0.38558
0.0114756 -0.492058 0.358927
0.5435 0.00805646 0.441237
-0.521858 0.0774462 0.405885
0.105806 0.409612 0.499649
0.00869856 0.367784 -0.472821
0.0844692 0.459625 0.455633
0.0478071 -0.613679 0.458312
0.494242 0.0473816 0.409576
-0.544587 0.0799563 0.43369
0.0664106 0.450565 0.507246
0.0788109 0.428924 -0.535228
0.0774171 0.432522 0.395064
0.0415423 -0.555765 0.479874
0.510904 0.0523651 0.435166
-0.510719 0.0216249 0.400472
0.0583202 0.484706 0.491624
0.119113 0.409139 -0.488626
0.0259768 0.480768 0.349945
0.0323505 -0.491726 0.421422
0.544917 -0.0102256 0.469291
-0.501737 0.0130081 0.491943
0.0277511 0.423631 0.567443
0.0265209 0.415391 -0.457474
0.0918136 0.601575 0.458024
0.0385542 -0.463926 0.444604
0.477057 0.0222841 0.446412
-0.516899 -2.5583e-05 0.398235
0.00109166 0.436232 0.52893
0.0386822 0.431495 -0.472698
0.0289253 0.484664 0.501286
0.0362462 -0.598947 0.440233
0.491088 0.00287043 0.466179
-0.562236 0.00972668 0.495985
0.00154381 0.533224 0.451876
0.0371477 0.517484 -0.539076
0.0349683 0.550354 0.527745
0.0363945 -0.531768 0.461385
0.460006 0.0484215 0.464798
-0.504222 0.0605517 0.459286
0.0132447 0.442151 0.466469
0.0738177 0.379272 -0.506891
-0.0596993 0.475691 0.533331
0.0286837 -0.502708 0.414681
0.52112 0.0930963 0.466375
-0.433993 0.0927609 0.506902
-0.0339065 0.478843 0.482749
0.115149 0.439586 -0.508526
-0.0541924 0.459651 0.449421
0.102671 -0.533047 0.402818
0.55957 0.0927251 0.466363
-0.496129 0.0354701 0.466135
-0.0377429 0.529676 0.504794
-0.0408708 0.535822 -0.518274
0.0912668 0.440463 0.463347
0.0136252 -0.53072 0.582184
0.492365 0.0154586 0.552553
-0.493742 -0.0151087 0.490817
0.0793299 0.512665 0.489722
0.0163423 0.548804 -0.506444
0.0337125 0.54038 0.439556
0.0614048 -0.536566 0.626796
0.482376 -0.00946823 0.526334
-0.472399 0.0256576 0.476921
0.074982 -0.46805 0.411885
0.156441 -0.537101 -0.5535
0.0883553 0.410204 -0.484982
0.104822 -0.446036 -0.499674
0.487925 0.0674353 -0.541414
-0.464666 0.0376192 -0.485367
0.0665282 -0.46506 0.542702
-0.0318983 -0.484049 -0.545839
0.0343024 0.47945 -0.578962
0.0268967 -0.474445 -0.390431
0.507541 -0.0414427 -0.45719
-0.438483 0.0318793 -0.459549
-0.030946 -0.48671 0.48568
0.176548 -0.470873 -0.507614
-0.0419114 0.60709 -0.483025
0.0808253 -0.508366 -0.450574
0.502256 0.0252442 -0.426417
-0.439878 0.0302985 -0.481104
0.0216538 -0.391015 0.477892
0.05893 -0.455221 -0.471906
0.00619161 0.514107 -0.387253
0.0168524 -0.489291 -0.435456
0.545463 0.061333 -0.471845
-0.515732 0.0634378 -0.485042
0.10695 -0.462299 0.438347
0.0583923 -0.478787 -0.445173
0.0885354 0.488924 -0.489906
0.0887233 -0.541393 -0.360936
0.473619 0.0488756 -0.463399
-0.484171 0.0502831 -0.449407
-0.00205092 -0.44721 0.526393
0.0375963 -0.455127 -0.549361
0.0978163 0.435199 -0.504184
-0.00461108 -0.459377 -0.478307
0.482004 0.0444338 -0.515841
-0.556675 0.0651912 -0.513927
0.0574226 -0.408426 0.531341
0.0236634 -0.478637 -0.497306
0.00214731 0.498357 -0.501019
0.000159822 -0.529223 -0.393598
0.498453 0.0387897 -0.465473
-0.552757 0.01895 -0.451361
0.0222687 -0.420588 0.5476
0.0537035 -0.368702 -0.510213
0.0624849 0.471731 -0.461661
0.0734366 -0.489441 -0.496853
0.512604 -0.00161102 -0.314245
-0.504894 0.0227297 -0.409372
0.0369244 -0.445087 0.454096
0.0466637 -0.457603 -0.484543
0.0833713 0.506403 -0.359565
0.03598 -0.43619 -0.451981
0.449796 0.0119703 -0.461789
-0.46775 0.0876539 -0.445297
0.0374618 -0.424918 0.526114
0.142661 -0.325676 -0.509046
0.0914266 0.485244 -0.455201
0.0310966 -0.517687 -0.453709
0.431922 0.0221572 -0.474114
-0.514673 0.0385481 -0.454632
0.00725017 -0.508029 0.459455
0.0583275 -0.343954 -0.498429
0.0763469 0.510256 -0.364541
-0.0413256 -0.521282 -0.451908
0.499591 0.0486994 -0.406438
-0.521746 0.00749679 -0.391685
0.0571371 -0.373681 0.45246
0.019858 -0.356479 -0.575426
0.103689 0.503944 -0.458829
0.0992205 -0.473421 -0.435391
0.511914 0.0363648 -0.373526
-0.572024 0.040011 -0.462991
0.00427188 -0.373116 0.478934
0.000967405 -0.395567 -0.573408
0.0877395 0.520471 -0.370029
0.0697878 -0.484115 -0.421248
0.50153 -0.00172222 -0.38348
-0.499331 0.0426285 -0.458967
0.00700875 -0.374153 0.498312
0.0811166 -0.350155 -0.45936
0.0255727 0.571482 -0.37698
0.03567 -0.436162 -0.407268
0.499312 0.0051726 -0.388715
-0.572774 0.0197596 -0.420288
0.0327033 -0.315292 0.519074
0.039677 -0.312292 -0.525333
0.0242308 0.538825 -0.336735
0.0666961 -0.436368 -0.347014
0.557363 0.0183197 -0.307936
-0.390657 0.0825194 -0.321515
0.0974232 -0.332847 0.432709
0.055447 -0.326205 -0.48355
0.0195607 0.56442 -0.342946
0.00994104 -0.511016 -0.344776
0.486043 0.0880298 -0.364367
-0.535865 0.0189604 -0.351143
-0.00451844 -0.333717 0.456164
0.0779846 -0.318991 -0.480319
0.0695687 0.563471 -0.329324
-0.0377617 -0.533939 -0.371807
0.521558 0.0419491 -0.34854
-0.539774 0.030835 -0.372642
-0.0316376 -0.296166 0.4911
0.110489 -0.388801 -0.521895
-0.00171987 0.544914 -0.27713
-0.0472761 -0.467287 -0.349547
0.506747 0.0119338 -0.29968
-0.487281 0.11437 -0.277076
0.092575 -0.28812 0.525741
0.0534138 -0.306668 -0.459185
0.0593634 0.551744 -0.308213
0.0461962 -0.500963 -0.222745
0.458411 0.0262522 -0.267508
-0.44821 -0.0166821 -0.351932
0.00838192 -0.351663 0.526379
0.056943 -0.286413 -0.563259
-0.0168373 0.413968 -0.296606
0.0856457 -0.517629 -0.235336
0.484562 0.115516 -0.32776
-0.445441 0.0203634 -0.285937
0.0193326 -0.26065 0.555541
0.124406 -0.299245 -0.46495
0.0266813 0.485524 -0.299035
0.0746215 -0.480926 -0.328442
0.47621 -0.0232055 -0.2908
-0.472882 0.0864594 -0.261016
0.0630471 -0.245017 0.541169
0.0270054 -0.239643 -0.5366
0.0512246 0.492976 -0.253948
-0.00974991 -0.434804 -0.260949
0.526358 0.0543894 -0.252472
-0.496749 0.0648432 -0.239751
0.0513458 -0.23017 0.493039
0.0658426 -0.338097 -0.455405
0.0650227 0.51298 -0.248069
-0.0169008 -0.477949 -0.290524
0.492905 0.0582311 -0.280307
-0.5141 0.100847 -0.297119
0.0102308 -0.2333 0.470355
-0.00349466 -0.261739 -0.480516
0.104532 0.502664 -0.204295
0.00770406 -0.511077 -0.28786
0.482512 0.00609424 -0.289507
-0.48732 0.0549545 -0.249477
0.0558957 -0.279939 0.508356
-0.0299846 -0.293319 -0.450768
0.0122799 0.513768 -0.209308
0.0587822 -0.518301 -0.202982
0.436961 -0.0206011 -0.260872
-0.525629 -0.000970651 -0.278938
0.0500296 -0.269788 0.531086
-0.0597766 -0.245771 -0.514235
0.0703175 0.577919 -0.210091
0.029725 -0.511685 -0.291544
0.494261 0.0978145 -0.236703
-0.540278 0.0396648 -0.214867
0.00416826 -0.252427 0.545267
0.112275 -0.244108 -0.489907
0.0359331 0.512691 -0.218132
0.106298 -0.545793 -0.164083
0.526065 0.0560635 -0.255783
-0.492488 -0.00925642 -0.235314
0.0171765 -0.254087 0.507441
0.0983995 -0.247892 -0.488188
0.00643258 0.524783 -0.199864
0.00402166 -0.500723 -0.238511
0.547627 0.0502129 -0.206178
-0.563679 0.0677059 -0.229345
-0.00319211 -0.19676 0.509168
0.104586 -0.269023 -0.544052
0.061454 0.512631 -0.25912
0.0504353 -0.546658 -0.217721
0.577823 0.122654 -0.210609
-0.502247 0.0303953 -0.242693
0.0704805 -0.187818 0.492697
0.145186 -0.244661 -0.454539
0.0750557 0.435642 -0.219194
0.0442762 -0.529628 -0.196414
0.485373 0.0903804 -0.227362
-0.539313 0.0723457 -0.255553
-0.00559719 -0.218795 0.51253
0.0221831 -0.187339 -0.532129
-0.0077345 0.478731 -0.196284
0.0749421 -0.50102 -0.146241
0.538702 0.0307277 -0.180453
-0.441319 0.0240817 -0.212702
0.0522785 -0.166387 0.531541
0.0362363 -0.155327 -0.46459
0.0487296 0.561668 -0.140923
0.060439 -0.504271 -0.150779
0.527702 -0.0545984 -0.211496
-0.471626 0.0410176 -0.13518
0.0335508 -0.102069 0.483635
0.0234864 -0.181027 -0.455839
0.0919146 0.594105 -0.174495
0.0771944 -0.524836 -0.159132
0.483685 0.0518535 -0.226889
-0.522473 -0.0256861 -0.145186
0.00468814 -0.165405 0.524046
0.0513382 -0.15244 -0.495342
0.0220488 0.500266 -0.135219
-0.00589848 -0.534111 -0.123504
0.489779 0.0626414 -0.130059
-0.550993 0.0115638 -0.228549
0.0382124 -0.13439 0.539569
0.068966 -0.213333 -0.515946
-0.00360729 0.458521 -0.0950887
0.106746 -0.538814 -0.159532
0.505368 0.010527 -0.114444
-0.489893 0.0747048 -0.0889456
0.0351203 -0.172403 0.593822
0.0752556 -0.203426 -0.500993
0.06306 0.473238 -0.14084
0.0123347 -0.542999 -0.229235
0.457406 0.0407475 -0.206367
-0.51916 0.00907694 -0.170459
0.0556646 -0.114757 0.492873
0.0916731 -0.0456033 -0.599863
0.0388178 0.544169 -0.148301
0.0424197 -0.489473 -0.0725501
0.53875 0.0563077 -0.166259
-0.50493 0.0980373 -0.125533
0.0796747 -0.0508136 0.499314
0.064512 -0.191 -0.457761
0.132995 0.477144 -0.139774
0.0118857 -0.511972 -0.131826
0.498417 0.00946507 -0.19399
-0.486596 0.0318005 -0.0599487
0.072698 -0.10512 0.473537
0.0792743 -0.146066 -0.463767
0.0306374 0.553542 -0.0499025
0.0740353 -0.432733 -0.0644871
0.476035 0.00718887 -0.143183
-0.543092 0.0601729 -0.10112
0.08476 -0.0392496 0.504894
0.0331715 -0.148784 -0.444121
0.108934 0.520999 -0.111696
0.0334811 -0.447614 -0.111649
0.478517 0.0685562 -0.0314584
-0.510965 0.0106411 -0.135231
-0.0721277 -0.0789566 0.455337
0.0375156 -0.0815004 -0.555843
0.123448 0.441336 -0.127492
0.0557293 -0.511693 -0.0528136
0.492324 -0.00887585 -0.0915283
-0.459123 0.00723778 -0.0934589
0.0115281 -0.0643596 0.468023
0.0437386 -0.074478 -0.460588
0.0110732 0.487753 -0.0391519
0.067555 -0.508781 -0.13071
0.502488 0.0143185 -0.137221
-0.421024 0.0480716 -0.0975725
0.027716 -0.0594035 0.558955
0.0766487 0.0492022 -0.497215
-0.0159955 0.492328 -0.109907
0.120291 -0.500751 -0.107693
0.511645 0.0931614 -0.050358
-0.528699 0.0770878 -0.0733859
0.0724009 -0.0292225 0.480674
0.0736868 -0.0867407 -0.421961
0.0739842 0.451425 -0.0975903
0.0101354 -0.504273 -0.0221628
0.485106 0.0154572 -0.0689366
-0.463839 0.0611692 -0.0878388
0.0221596 -0.134832 0.54467
-0.0122619 -0.0907943 -0.397604
0.100086 0.482202 -0.138477
0.0566291 -0.462276 -0.0609225
0.591434 0.0520478 -0.00833995
-0.559742 0.0394562 -0.0179786
-0.0197553 -0.105062 0.473407
0.074483 -0.0655135 -0.545915
0.015849 0.476724 -0.0429465
0.0367994 -0.501868 -0.0237119
0.506032 0.0428198 -0.0645894
-0.425845 0.0941367 -0.0107345
0.0151761 -0.0827945 0.465419
0.00907592 -0.0435369 -0.411893
0.0272477 0.478663 0.00559163
0.0103974 -0.499639 0.0103815
0.489925 0.0623119 -0.0789784
-0.477838 0.0835644 -0.00493886
-0.00821707 -0.0614337 0.498534
-0.0209425 -0.00197275 -0.474938
0.0794548 0.473054 -0.00386587
0.0746502 -0.654277 -0.0716549
0.54014 0.047491 -0.0376793
-0.508566 0.101016 -0.0358601
0.0380409 -0.0574091 0.42224
0.067108 0.0300925 -0.486867
