ply
format ascii 1.0
comment sampling resolution: 0.01
comment noise level: 0.03
comment Created by Open3D
element vertex 1655
property double x
property double y
property double z
end_header
-0.4127 -0.523077 -0.115231
0.466549 -0.43913 -0.10684
-0.470429 -0.386134 -0.101739
-0.379073 -0.120255 0.461601
-0.432266 -0.0869837 -0.53369
-0.395087 0.463948 -0.105726
-0.422946 -0.540191 -0.096076
0.492852 -0.399713 -0.118001
-0.528542 -0.462268 -0.135769
-0.367617 -0.115725 0.476243
-0.44381 -0.0592155 -0.510912
-0.4572 0.535592 -0.0691022
-0.433632 -0.474935 -0.0615295
0.494508 -0.452352 -0.0482954
-0.476992 -0.39539 -0.114004
-0.415138 -0.0928504 0.517699
-0.474043 -0.0668527 -0.456378
-0.38794 0.501688 -0.0750835
-0.460685 -0.527032 -0.0724343
0.495612 -0.450826 -0.122476
-0.573731 -0.456676 -0.0799599
-0.391025 -0.0372347 0.506406
-0.405314 -0.0240178 -0.483821
-0.397289 0.526468 -0.0768505
-0.412197 -0.471966 -0.0078049
0.431148 -0.402724 -0.0169441
-0.479117 -0.420743 -0.0797621
-0.423137 -0.0249806 0.518893
-0.436058 -0.132359 -0.534896
-0.398085 0.581046 -0.0483947
-0.398391 -0.424891 -0.0718567
0.477102 -0.448076 -0.0556928
-0.503515 -0.413724 -0.05512
-0.415249 -0.019838 0.510114
-0.441405 -0.0162361 -0.488765
-0.353307 0.499773 0.000403409
-0.412042 -0.501964 -0.0905224
0.489015 -0.456901 -0.0447241
-0.434675 -0.382449 -0.0250744
-0.411635 -0.0423527 0.474384
-0.39513 -0.0330691 -0.491842
-0.42756 0.458792 -0.057196
-0.344631 -0.484838 -0.0750955
0.510416 -0.43609 -0.0169025
-0.469266 -0.419644 0.0120895
-0.435665 -0.0144741 0.457804
-0.390163 0.00259025 -0.550479
-0.445139 0.494384 -0.0858416
-0.352101 -0.478638 -0.0366509
0.517841 -0.457257 -0.0421909
-0.488579 -0.44945 -0.0340218
-0.473077 -0.0419201 0.508369
-0.414898 -0.0446082 -0.492347
-0.426306 0.518699 0.0230217
-0.401744 -0.458792 -0.00295992
0.528519 -0.391517 -0.0308364
-0.521585 -0.408747 -0.0335438
-0.377625 0.00129083 0.474297
-0.42894 0.0238117 -0.49291
-0.358196 0.557019 0.0150589
-0.401743 -0.506451 0.0463157
0.56094 -0.434849 -0.00263878
-0.462801 -0.378345 -0.0161547
-0.384075 0.0283097 0.495861
-0.381468 -0.00316227 -0.440167
-0.444334 0.514973 0.0229927
-0.448607 -0.455629 0.00200949
0.483416 -0.452733 -0.00338067
-0.513564 -0.348971 0.00947127
-0.399772 0.00958436 0.503067
-0.451778 -0.0119915 -0.481566
-0.363917 0.488281 0.0338743
-0.423755 -0.494374 -0.0235925
0.583289 -0.378227 0.0562311
-0.500274 -0.422138 -0.0105027
-0.401293 -0.00656122 0.458251
-0.403401 0.0309655 -0.472952
-0.418239 0.462058 0.0787875
-0.390765 -0.48446 0.0289561
0.469078 -0.434434 -0.0185825
-0.467674 -0.431475 -0.0061454
-0.43767 0.0199282 0.518504
-0.402202 0.0390076 -0.526922
-0.438779 0.501408 0.0686423
-0.475942 -0.489631 0.0741787
0.467264 -0.405315 0.0755996
-0.436306 -0.448727 0.041737
-0.431243 0.0547867 0.471225
-0.460143 0.0981918 -0.471845
-0.389496 0.415057 0.066893
-0.421138 -0.456511 -0.0158184
0.496932 -0.40575 0.0339507
-0.457258 -0.447973 0.0642635
-0.444354 0.0857644 0.507551
-0.411999 0.0145686 -0.490116
-0.422173 0.548239 -0.0177197
-0.440169 -0.466585 0.0235001
0.481422 -0.387966 0.0621878
-0.499597 -0.425578 0.0700237
-0.418277 0.0601135 0.481633
-0.443151 0.0573137 -0.48844
-0.405677 0.494798 0.0729335
-0.459362 -0.537283 0.0339252
0.511756 -0.392582 0.0304178
-0.481332 -0.354352 0.0299035
-0.383542 0.121467 0.476192
-0.424137 0.0628247 -0.499178
-0.415589 0.515437 0.057409
-0.419833 -0.528062 0.0856857
0.474309 -0.514472 0.0465309
-0.441302 -0.447708 0.0716962
-0.411968 0.0910413 0.413113
-0.434734 0.102107 -0.482366
-0.449472 0.4594 0.0957369
-0.394692 -0.471079 0.117827
0.566382 -0.389565 0.0716419
-0.527629 -0.423256 0.118445
-0.502167 0.123021 0.482607
-0.391086 0.078109 -0.495392
-0.388672 0.518944 0.103494
-0.437048 -0.486684 0.142922
0.527384 -0.442054 0.117802
-0.476038 -0.378994 0.034715
-0.428608 0.156562 0.534345
-0.433648 0.132565 -0.485822
-0.396604 0.457191 0.0553335
-0.390129 -0.472254 0.148745
0.482653 -0.417892 0.0962053
-0.492487 -0.42853 0.0596152
-0.433281 0.134763 0.480315
-0.398329 0.0916504 -0.524909
-0.413936 0.441402 0.143794
-0.405991 -0.512408 0.158088
0.489235 -0.419249 0.134385
-0.449092 -0.469127 0.0931459
-0.392032 0.0825466 0.528782
-0.483655 0.0791246 -0.484342
-0.403285 0.44303 0.142244
-0.460054 -0.501425 0.0967885
0.488631 -0.443593 0.178513
-0.449869 -0.404862 0.165219
-0.442232 0.188959 0.481227
-0.414574 0.165909 -0.479579
-0.413254 0.4895 0.117221
-0.451719 -0.463201 0.148188
0.508283 -0.398362 0.187488
-0.464666 -0.404211 0.142224
-0.408405 0.110462 0.502755
-0.391307 0.13425 -0.470614
-0.430507 0.505539 0.131665
-0.401902 -0.514435 0.139367
0.534557 -0.401916 0.150741
-0.469811 -0.425739 0.187003
-0.364327 0.18956 0.482088
-0.438784 0.148351 -0.56608
-0.469151 0.497098 0.210391
-0.39525 -0.451161 0.112969
0.482909 -0.454127 0.158655
-0.523209 -0.478493 0.191334
-0.388789 0.143272 0.466758
-0.413974 0.120169 -0.495331
-0.421785 0.556991 0.188232
-0.448368 -0.495307 0.17153
0.561472 -0.384583 0.218798
-0.526096 -0.41093 0.209905
-0.396721 0.203987 0.560003
-0.407317 0.141878 -0.542662
-0.453366 0.494205 0.148068
-0.420456 -0.51375 0.145015
0.529008 -0.430307 0.167998
-0.51304 -0.494443 0.133873
-0.359692 0.213979 0.516301
-0.41019 0.177365 -0.540398
-0.419297 0.551698 0.209982
-0.405225 -0.460625 0.182477
0.468883 -0.426547 0.240174
-0.504012 -0.408908 0.203429
-0.504077 0.190117 0.475795
-0.396731 0.180703 -0.525542
-0.410148 0.523812 0.232881
-0.480477 -0.503366 0.173357
0.490229 -0.468824 0.16162
-0.449466 -0.411161 0.152775
-0.411442 0.193906 0.419583
-0.362653 0.251315 -0.52596
-0.446874 0.532613 0.138953
-0.438445 -0.538715 0.141546
0.473125 -0.453262 0.242261
-0.550811 -0.388954 0.188449
-0.407322 0.229356 0.478043
-0.38918 0.254789 -0.45456
-0.382287 0.527328 0.230681
-0.411387 -0.50811 0.16995
0.452047 -0.441178 0.200951
-0.499266 -0.427806 0.150955
-0.402398 0.245158 0.526698
-0.387781 0.192818 -0.482987
-0.43035 0.466572 0.256429
-0.405398 -0.484668 0.248885
0.502919 -0.395444 0.240413
-0.531106 -0.421288 0.248846
-0.395672 0.261548 0.477742
-0.431488 0.279384 -0.460085
-0.442836 0.466631 0.224962
-0.42453 -0.498056 0.213668
0.534233 -0.423353 0.232694
-0.526577 -0.402014 0.259769
-0.411891 0.27575 0.442416
-0.425448 0.272634 -0.486677
-0.403291 0.501941 0.259355
-0.369991 -0.495836 0.232324
0.498652 -0.404963 0.245415
-0.458271 -0.427605 0.278284
-0.442683 0.243238 0.517286
-0.444951 0.241372 -0.492652
-0.448856 0.528476 0.291674
-0.382751 -0.477972 0.230453
0.488519 -0.474768 0.274187
-0.496984 -0.376534 0.267268
-0.458692 0.295526 0.531372
-0.437232 0.233487 -0.444097
-0.443223 0.512328 0.286135
-0.413209 -0.520676 0.277464
0.521995 -0.387075 0.200895
-0.48025 -0.467173 0.25993
-0.387276 0.269518 0.516685
-0.39513 0.250716 -0.518308
-0.478639 0.477673 0.256371
-0.423879 -0.476766 0.289079
0.526777 -0.382413 0.282128
-0.54655 -0.413579 0.249937
-0.463789 0.271102 0.526359
-0.454981 0.297588 -0.49759
-0.443196 0.50694 0.305795
-0.422168 -0.491779 0.280563
0.480581 -0.378345 0.290274
-0.460715 -0.413743 0.294181
-0.399321 0.332225 0.511675
-0.406424 0.246159 -0.501931
-0.459785 0.515579 0.250487
-0.380453 -0.526477 0.332163
0.485102 -0.401196 0.276162
-0.517124 -0.472511 0.226961
-0.381572 0.261017 0.576131
-0.399885 0.304848 -0.543713
-0.412564 0.514853 0.372979
-0.438812 -0.47786 0.278685
0.484111 -0.422528 0.372813
-0.524648 -0.446006 0.379238
-0.447955 0.285855 0.48428
-0.392775 0.289746 -0.450516
-0.396096 0.490503 0.317236
-0.413448 -0.507318 0.283471
0.447181 -0.453917 0.328923
-0.498104 -0.3815 0.32441
-0.365183 0.313494 0.532774
-0.40724 0.321825 -0.436876
-0.39968 0.498226 0.353934
-0.434323 -0.515106 0.297672
0.538562 -0.359328 0.310663
-0.481911 -0.425553 0.321536
-0.424811 0.31133 0.438565
-0.487954 0.304555 -0.496042
-0.380723 0.541513 0.330539
-0.382249 -0.488064 0.331592
0.552711 -0.410021 0.334
-0.506627 -0.45531 0.3606
-0.434973 0.311285 0.497299
-0.437261 0.400804 -0.474977
-0.456822 0.515539 0.312829
-0.445754 -0.482241 0.377844
0.513375 -0.390091 0.349674
-0.495635 -0.450797 0.362036
-0.371212 0.357443 0.496539
-0.411562 0.36402 -0.497186
-0.335849 0.532259 0.309809
-0.459969 -0.493239 0.401261
0.459019 -0.399216 0.353487
-0.469767 -0.360493 0.358946
-0.374214 0.377336 0.486364
-0.416447 0.372368 -0.475312
-0.450314 0.520546 0.423385
-0.422667 -0.507857 0.351394
0.515913 -0.434217 0.389944
-0.515787 -0.408245 0.314973
-0.422282 0.340998 0.499344
-0.385592 0.398429 -0.56457
-0.362309 0.538402 0.389075
-0.432429 -0.507827 0.309559
0.506709 -0.404954 0.379143
-0.55216 -0.449312 0.386221
-0.392479 0.343476 0.502954
-0.433027 0.420961 -0.485137
-0.435311 0.501349 0.332794
-0.439943 -0.549178 0.383924
0.495035 -0.451185 0.443115
-0.49689 -0.44514 0.377054
-0.387981 0.468604 0.476351
-0.399058 0.382135 -0.501587
-0.405996 0.484557 0.415243
-0.465311 -0.47511 0.421219
0.531459 -0.433768 0.422459
-0.521668 -0.376658 0.399633
-0.371958 0.408852 0.5126
-0.471782 0.409475 -0.467218
-0.419968 0.518244 0.391103
-0.392246 -0.494911 0.426154
0.54338 -0.387598 0.406518
-0.515099 -0.436283 0.380773
-0.432261 0.353699 0.513649
-0.413646 0.371847 -0.504024
-0.387953 0.530494 0.414968
-0.41572 -0.503396 0.387344
0.474458 -0.390053 0.400052
-0.531341 -0.365387 0.422827
-0.376226 0.432213 0.509898
-0.355573 0.424701 -0.539936
-0.362419 0.504122 0.445554
-0.398911 -0.461473 0.430915
0.512446 -0.412201 0.390326
-0.443967 -0.437648 0.43782
-0.413293 0.467535 0.441994
-0.448831 0.398413 -0.499041
-0.41772 0.489055 0.416793
-0.425953 -0.488745 0.4581
0.48694 -0.435202 0.422588
-0.50165 -0.397851 0.437871
-0.457205 0.492611 0.507092
-0.394845 0.467463 -0.55854
-0.384218 0.505373 0.465121
-0.393827 -0.507471 0.447197
0.501958 -0.38595 0.457313
-0.545654 -0.403776 0.460242
-0.365718 0.484395 0.47275
-0.40048 0.453419 -0.46989
-0.392975 0.509371 0.441579
-0.43819 -0.489092 0.453853
0.546883 -0.433162 0.461272
-0.516019 -0.375807 0.461535
-0.412852 0.509235 0.513305
-0.422848 0.4382 -0.526451
-0.428003 0.47774 0.508839
-0.418279 -0.496829 0.459606
0.5383 -0.382107 0.501369
-0.434032 -0.423484 0.496154
-0.399465 0.391882 0.502089
-0.420453 0.442685 -0.505178
-0.429907 0.520227 0.460909
-0.407069 -0.497176 0.471001
0.469422 -0.354361 0.450674
-0.483588 -0.409067 0.463385
-0.391509 0.485887 0.522925
-0.476986 0.444167 -0.546718
-0.379358 0.503486 0.480504
-0.462881 -0.537499 0.514213
0.467087 -0.425977 0.526669
-0.461304 -0.44306 0.437238
-0.473471 0.535178 0.485936
-0.442066 0.520372 -0.502263
-0.428354 0.531289 0.444343
-0.386176 -0.565994 0.563492
0.496189 -0.429567 0.45799
-0.531666 -0.442154 0.483649
-0.388102 -0.50713 0.502311
-0.350803 -0.470021 -0.48415
-0.408398 0.511054 -0.502287
-0.375957 -0.524387 -0.518508
0.50702 -0.410132 -0.448053
-0.484907 -0.40637 -0.505072
-0.430408 -0.471775 0.526756
-0.404169 -0.530733 -0.520292
-0.39047 0.495501 -0.432042
-0.429673 -0.437713 -0.517212
0.518284 -0.412912 -0.484694
-0.499862 -0.411754 -0.514477
-0.359572 -0.48232 0.529473
-0.39836 -0.485627 -0.46076
-0.44475 0.51941 -0.501354
-0.379908 -0.451564 -0.489543
0.519427 -0.404076 -0.458835
-0.476933 -0.376191 -0.481864
-0.417352 -0.442705 0.505682
-0.400661 -0.436487 -0.52149
-0.407123 0.52444 -0.43187
-0.444309 -0.532361 -0.453868
0.529657 -0.335842 -0.505886
-0.526587 -0.412967 -0.47486
-0.399384 -0.461457 0.521614
-0.423074 -0.488515 -0.53769
-0.438619 0.496372 -0.457998
-0.348626 -0.542915 -0.445
0.520323 -0.472812 -0.435471
-0.531159 -0.401056 -0.459976
-0.396749 -0.421125 0.531253
-0.402667 -0.45641 -0.484042
-0.40234 0.490414 -0.486065
-0.441656 -0.5558 -0.517164
0.542633 -0.397335 -0.457434
-0.49658 -0.445461 -0.452389
-0.4196 -0.462217 0.58054
-0.428853 -0.454161 -0.513677
-0.427301 0.473938 -0.437719
-0.39007 -0.482918 -0.44029
0.511096 -0.382378 -0.43223
-0.474385 -0.411499 -0.459161
-0.36802 -0.419527 0.488478
-0.405104 -0.404747 -0.533222
-0.416997 0.523999 -0.433354
-0.383484 -0.470633 -0.496029
0.479702 -0.397832 -0.426154
-0.49667 -0.442065 -0.434931
-0.380608 -0.465162 0.469478
-0.41324 -0.437345 -0.470278
-0.411205 0.506757 -0.437214
-0.375179 -0.48342 -0.460117
0.556543 -0.434153 -0.414129
-0.507019 -0.449526 -0.357652
-0.35437 -0.365102 0.494465
-0.447507 -0.451813 -0.501077
-0.370443 0.521947 -0.3837
-0.416219 -0.526276 -0.336841
0.551105 -0.388835 -0.392851
-0.504749 -0.456886 -0.380093
-0.43523 -0.380784 0.531517
-0.422109 -0.335778 -0.506195
-0.386112 0.52435 -0.427495
-0.447584 -0.494524 -0.406149
0.56808 -0.427006 -0.458572
-0.47891 -0.41441 -0.363279
-0.421245 -0.377125 0.548604
-0.408036 -0.412284 -0.491606
-0.461927 0.541972 -0.394868
-0.436501 -0.483619 -0.414539
0.452319 -0.394047 -0.334163
-0.453147 -0.378559 -0.402779
-0.395093 -0.366806 0.571781
-0.400224 -0.328609 -0.482511
-0.4057 0.516619 -0.390371
-0.40346 -0.509409 -0.408883
0.504329 -0.42932 -0.364424
-0.495153 -0.471191 -0.412391
-0.404729 -0.371001 0.496632
-0.403281 -0.324935 -0.506189
-0.392628 0.480593 -0.363582
-0.413561 -0.544588 -0.394107
0.478584 -0.428123 -0.352666
-0.526973 -0.435875 -0.35602
-0.437726 -0.319342 0.500307
-0.43912 -0.396111 -0.44897
-0.420328 0.499155 -0.377687
-0.421818 -0.492028 -0.379794
0.509512 -0.348943 -0.360824
-0.461899 -0.444357 -0.349025
-0.395755 -0.36786 0.465038
-0.372303 -0.352439 -0.473382
-0.384259 0.484722 -0.3048
-0.386879 -0.528016 -0.339775
0.480858 -0.42218 -0.371009
-0.487983 -0.430977 -0.347561
-0.409574 -0.338058 0.524141
-0.379646 -0.294915 -0.493214
-0.395618 0.503422 -0.364518
-0.424735 -0.475517 -0.359096
0.502518 -0.379177 -0.362041
-0.414337 -0.387003 -0.354895
-0.416123 -0.361788 0.444029
-0.421457 -0.287136 -0.47947
-0.484118 0.554646 -0.291168
-0.416354 -0.485698 -0.302526
0.548973 -0.40718 -0.370443
-0.466861 -0.404621 -0.290409
-0.412342 -0.273718 0.536965
-0.373031 -0.285263 -0.488028
-0.350417 0.502592 -0.317259
-0.399195 -0.481687 -0.302684
0.522489 -0.432328 -0.27937
-0.493893 -0.443487 -0.318987
-0.427149 -0.323126 0.549494
-0.376524 -0.261641 -0.534641
-0.443504 0.50078 -0.299143
-0.458303 -0.454912 -0.284404
0.542392 -0.369922 -0.293284
-0.464084 -0.478968 -0.283253
-0.451799 -0.310673 0.514889
-0.370495 -0.271555 -0.587364
-0.458697 0.413701 -0.274592
-0.40952 -0.468884 -0.286318
0.508855 -0.440755 -0.246528
-0.550169 -0.391494 -0.298009
-0.399972 -0.319046 0.454028
-0.48995 -0.260893 -0.45704
-0.370022 0.466529 -0.320535
-0.415233 -0.471692 -0.260981
0.486165 -0.404339 -0.276012
-0.473954 -0.377832 -0.253892
-0.445834 -0.313514 0.488291
-0.424689 -0.3207 -0.569544
-0.387782 0.48994 -0.27361
-0.415858 -0.534727 -0.225351
0.552326 -0.42776 -0.297949
-0.494693 -0.460714 -0.259095
-0.43689 -0.229214 0.554848
-0.396641 -0.259881 -0.525881
-0.406287 0.519201 -0.302148
-0.43362 -0.460602 -0.277237
0.440657 -0.357793 -0.267306
-0.436651 -0.417301 -0.260032
-0.415068 -0.222332 0.504198
-0.418851 -0.219972 -0.481679
-0.401202 0.481937 -0.299583
-0.442296 -0.478367 -0.250243
0.482059 -0.446683 -0.232437
-0.490317 -0.406792 -0.253038
-0.410187 -0.256613 0.46968
-0.419896 -0.195695 -0.494312
-0.441339 0.477434 -0.211729
-0.459533 -0.483451 -0.286799
0.448594 -0.418692 -0.235249
-0.48365 -0.401102 -0.238762
-0.390741 -0.211746 0.462427
-0.420319 -0.261137 -0.530022
-0.424554 0.509029 -0.23103
-0.396894 -0.462461 -0.250076
0.511203 -0.423583 -0.241647
-0.518999 -0.380655 -0.223955
-0.430321 -0.20687 0.469784
-0.399265 -0.227317 -0.489628
-0.420382 0.509105 -0.195527
-0.436202 -0.497239 -0.253124
0.517475 -0.391287 -0.223343
-0.497661 -0.430339 -0.170635
-0.432339 -0.23034 0.505417
-0.34773 -0.223423 -0.570591
-0.414904 0.512093 -0.209977
-0.43116 -0.481173 -0.283137
0.523566 -0.443792 -0.257802
-0.469566 -0.439595 -0.187442
-0.41899 -0.187997 0.445615
-0.434311 -0.181911 -0.49021
-0.405315 0.550255 -0.235237
-0.374862 -0.484488 -0.250888
0.484606 -0.470129 -0.225504
-0.51428 -0.414346 -0.240189
-0.422586 -0.216225 0.514622
-0.42971 -0.151229 -0.542555
-0.413438 0.45754 -0.203518
-0.427101 -0.528944 -0.173619
0.486621 -0.447797 -0.217095
-0.515638 -0.441753 -0.137933
-0.470699 -0.178707 0.48337
-0.461525 -0.196046 -0.469025
-0.403155 0.515101 -0.162459
-0.412118 -0.456812 -0.224564
0.494072 -0.403064 -0.219044
-0.46039 -0.425671 -0.175736
-0.413642 -0.143213 0.504805
-0.388047 -0.109558 -0.49851
-0.392092 0.508254 -0.135476
-0.423644 -0.497256 -0.210804
0.535649 -0.434184 -0.196974
-0.455353 -0.402846 -0.179539
-0.399741 -0.163616 0.489776
-0.391018 -0.152973 -0.504506
-0.421932 0.494676 -0.192638
-0.447955 -0.487836 -0.185397
0.463543 -0.445756 -0.204816
-0.483284 -0.366041 -0.166255
-0.411412 -0.138665 0.496957
-0.448093 -0.112577 -0.479039
-0.398604 0.465355 -0.134847
-0.376725 -0.520753 -0.134653
0.478883 -0.364334 -0.153863
-0.49039 -0.376414 -0.171674
-0.421872 -0.132009 0.523596
-0.421701 -0.161333 -0.528181
-0.416805 0.546974 -0.173367
-0.442958 -0.506062 -0.100235
0.529503 -0.400253 -0.194795
-0.552241 -0.404288 -0.125771
-0.362445 -0.176734 0.542696
-0.393507 -0.0746359 -0.517616
-0.368124 0.481571 -0.17529
-0.40813 -0.489049 -0.137848
0.582514 -0.368775 -0.169164
-0.537447 -0.417039 -0.0675813
-0.392886 -0.159744 0.537591
-0.382178 -0.139786 -0.546994
-0.437424 0.474146 -0.174831
-0.433557 -0.534709 -0.119617
0.507278 -0.421529 -0.0981352
-0.492924 -0.421579 -0.0848201
-0.375994 -0.0970704 0.478989
-0.443092 -0.146844 -0.505043
-0.364681 0.516248 -0.0751303
-0.48624 -0.507945 -0.139867
0.466153 -0.39043 -0.142676
-0.513071 -0.392616 -0.14062
-0.409959 -0.107778 0.528313
-0.391517 -0.0837768 -0.504604
-0.392341 0.456856 -0.094984
-0.347441 -0.515969 -0.121608
0.526499 -0.385538 -0.0850304
-0.474263 -0.449871 -0.110949
-0.417528 -0.0597848 0.455182
-0.432051 -0.0573471 -0.54895
-0.345251 0.528887 -0.0898983
-0.366831 -0.485462 -0.070074
0.459477 -0.38499 -0.0605894
-0.489252 -0.405429 -0.0403213
-0.449017 -0.0933428 0.480683
-0.385688 -0.0814842 -0.501823
-0.403247 0.504973 -0.0822175
-0.379699 -0.522747 -0.0794689
0.480566 -0.430251 -0.0230847
-0.510736 -0.388054 -0.0984889
-0.359891 -0.0278603 0.448402
-0.368779 -0.0911455 -0.526298
-0.438843 0.479684 -0.121024
-0.362341 -0.494937 -0.0882853
0.451603 -0.452197 -0.0969276
-0.503162 -0.435004 -0.185104
-0.405013 -0.0639185 0.564901
-0.385049 -0.0708517 -0.536977
-0.399778 0.494276 -0.0482741
-0.441066 -0.51302 -0.0854239
0.478521 -0.440068 -0.0653757
-0.526526 -0.397246 -0.0573542
-0.380726 -0.0786935 0.478892
-0.361315 0.00775796 -0.497208
-0.457385 0.510224 -0.0919405
-0.425552 -0.510348 -0.0307624
0.476154 -0.404104 -0.0743871
-0.512242 -0.417898 -0.0248496
-0.376336 -0.0176136 0.504407
-0.40714 -0.0456181 -0.461786
-0.362972 0.497285 0.00291152
-0.334975 -0.476146 -0.0472081
0.537244 -0.388177 -0.0214656
-0.506431 -0.407924 -0.0254723
-0.388112 -0.0215734 0.50399
-0.358583 -0.0205291 -0.512872
-0.420139 0.514403 -0.00777801
-0.438098 -0.519016 -0.0885528
0.467965 -0.359227 -0.0184622
-0.486233 -0.426617 -0.0787854
-0.39039 -0.0347169 0.435995
-0.409829 -0.0321091 -0.508227
-0.371108 0.534136 -0.0359583
-0.427525 -0.531512 -0.0232113
0.513566 -0.43475 -0.0179047
-0.496727 -0.430297 -0.048675
-0.413819 0.0242226 0.473531
-0.39733 -0.0409988 -0.509141
-0.406345 0.545894 -0.0440914
-0.447976 -0.479514 -0.0163229
0.530306 -0.442697 -0.0577063
-0.453018 -0.389569 -0.0596405
-0.387216 -0.0660486 0.449765
-0.449158 -0.0116306 -0.472018
-0.405493 0.504235 -0.0299861
-0.45804 -0.482112 0.0405925
0.526708 -0.439318 0.0393428
-0.469224 -0.395744 -0.00452953
-0.389484 -0.00479551 0.507783
-0.424289 0.0295284 -0.45561
-0.419572 0.544446 -0.00568625
-0.44082 -0.493123 -0.0274975
0.493278 -0.378687 0.000301798
-0.554102 -0.448649 0.0276673
-0.47666 0.10369 0.501898
-0.430816 0.0564621 -0.523861
-0.416219 0.531217 -0.0364768
-0.453719 -0.461058 -0.037523
0.507488 -0.41022 0.00168588
-0.483886 -0.392502 0.0109407
-0.401818 0.0694629 0.507585
-0.40144 -0.00330206 -0.495629
-0.445347 0.499588 0.0110596
-0.455861 -0.519319 0.00210414
0.451535 -0.371347 0.061929
-0.409287 -0.446218 0.0305934
-0.38926 0.0259313 0.515056
-0.380696 0.0745699 -0.498934
-0.444091 0.474586 0.0601773
-0.478337 -0.483672 0.0629991
0.526938 -0.383746 0.0409787
-0.453596 -0.396207 -0.0233276
-0.365857 0.00626212 0.49722
-0.381585 0.0654396 -0.525528
-0.38982 0.530954 0.0664899
-0.442805 -0.457184 0.0734226
0.445063 -0.392565 -0.00501461
-0.531139 -0.451837 0.0238249
-0.414977 0.0384833 0.479424
-0.424825 0.0474807 -0.544924
-0.464432 0.481301 0.0804731
-0.371035 -0.500582 0.0614886
0.569677 -0.436933 0.0778516
-0.539963 -0.411407 0.025184
-0.423463 0.0915187 0.471958
-0.474957 0.0473971 -0.491904
-0.400442 0.519941 -0.0306799
-0.389192 -0.496503 0.0308079
0.500367 -0.432757 0.0345153
-0.527072 -0.402307 0.0598861
-0.428148 0.0393107 0.47354
-0.412779 0.0869103 -0.482293
-0.44227 0.458932 0.0472704
-0.418337 -0.549562 0.092517
0.516816 -0.354224 0.0802651
-0.529342 -0.387036 0.0409875
-0.401966 0.0546067 0.484362
-0.441248 0.0878065 -0.508038
-0.396107 0.492928 0.0723042
-0.419854 -0.520618 0.101043
0.523642 -0.464617 0.0975984
-0.488441 -0.398525 0.0374867
-0.420554 0.0710995 0.446698
-0.41649 0.124761 -0.527933
-0.412564 0.518573 0.0774235
-0.372673 -0.527414 0.0810875
0.530387 -0.395514 0.10307
-0.518146 -0.434764 0.110244
-0.409674 0.10518 0.484466
-0.393494 0.0721976 -0.486048
-0.3974 0.481307 0.145021
-0.404628 -0.537172 0.109877
0.464595 -0.471884 0.0725494
-0.477801 -0.434126 0.13299
-0.382192 0.0983256 0.587389
-0.401838 0.161275 -0.526993
-0.397652 0.476659 0.148517
-0.392839 -0.517038 0.1258
0.510109 -0.385249 0.152698
-0.510427 -0.448897 0.108762
-0.411611 0.175337 0.496851
-0.393199 0.161359 -0.455648
-0.401647 0.505319 0.0909992
-0.356021 -0.525636 0.129448
0.457737 -0.398177 0.122079
-0.515568 -0.419331 0.120321
-0.378017 0.161923 0.493689
-0.446889 0.2056 -0.513176
-0.415805 0.492523 0.0939471
-0.426422 -0.49227 0.136358
0.471806 -0.457783 0.176638
-0.447782 -0.426712 0.144661
-0.35232 0.161053 0.488866
-0.424319 0.191018 -0.524549
-0.354028 0.456011 0.124322
-0.429894 -0.521093 0.0748589
0.486347 -0.413288 0.105424
-0.531047 -0.403215 0.146205
-0.396857 0.129556 0.521895
-0.390993 0.159227 -0.525493
-0.41438 0.557822 0.118144
-0.390725 -0.466405 0.13367
0.467627 -0.412811 0.115535
-0.456694 -0.43247 0.146426
-0.416951 0.0970635 0.442958
-0.407476 0.152662 -0.486545
-0.38913 0.479905 0.180581
-0.401902 -0.494393 0.205633
0.547878 -0.443209 0.167956
-0.461092 -0.423867 0.167674
-0.363767 0.231021 0.526122
-0.431587 0.224753 -0.517798
-0.40739 0.497861 0.176398
-0.445895 -0.460038 0.22236
0.49696 -0.41798 0.159905
-0.441432 -0.37469 0.16466
-0.373448 0.189217 0.476018
-0.355071 0.140874 -0.523688
-0.458775 0.491214 0.206035
-0.399893 -0.503783 0.187611
0.508901 -0.379379 0.209809
-0.45324 -0.429307 0.223876
-0.382712 0.20122 0.521352
-0.432076 0.26382 -0.52484
-0.429734 0.478474 0.230313
-0.413726 -0.508434 0.208659
0.543594 -0.403954 0.22259
-0.536379 -0.447302 0.150136
-0.362843 0.20417 0.51995
-0.396 0.210893 -0.493314
-0.380213 0.471444 0.196294
-0.411908 -0.489473 0.143668
0.520969 -0.417431 0.225013
-0.504592 -0.406374 0.213768
-0.416353 0.228911 0.525111
-0.380098 0.220074 -0.480121
-0.323518 0.482444 0.179793
-0.416921 -0.506269 0.179814
0.490427 -0.419759 0.204517
-0.476803 -0.393447 0.237081
-0.409549 0.266031 0.461214
-0.468203 0.217077 -0.4829
-0.383458 0.495671 0.211787
-0.426006 -0.486093 0.237635
0.48114 -0.408885 0.236979
-0.517363 -0.460256 0.161536
-0.452295 0.208401 0.503488
-0.455093 0.172689 -0.462105
-0.373216 0.479448 0.24235
-0.385607 -0.532499 0.24327
0.499181 -0.374199 0.238379
-0.47228 -0.382806 0.247376
-0.400199 0.198002 0.462197
-0.427828 0.242254 -0.500993
-0.457075 0.505353 0.277027
-0.444686 -0.504035 0.246837
0.501409 -0.430385 0.258716
-0.540364 -0.36315 0.224656
-0.432759 0.260374 0.475926
-0.403917 0.184625 -0.465752
-0.471811 0.505459 0.296771
-0.39299 -0.464623 0.2314
0.525412 -0.362138 0.229049
-0.510328 -0.445507 0.278795
-0.370935 0.235586 0.442687
-0.45641 0.23809 -0.524121
-0.446335 0.512155 0.252874
-0.416033 -0.485348 0.266521
0.441603 -0.406122 0.302484
-0.533975 -0.474982 0.252033
-0.400739 0.277869 0.539548
-0.39269 0.25019 -0.527407
-0.382755 0.539654 0.288955
-0.404306 -0.498133 0.236285
0.54223 -0.443362 0.284805
-0.456697 -0.386322 0.270661
-0.379506 0.34873 0.507601
-0.457212 0.307343 -0.484797
-0.391537 0.459044 0.240205
-0.39562 -0.491779 0.275984
0.519457 -0.409723 0.28109
-0.483897 -0.403915 0.26519
-0.408461 0.326288 0.47773
-0.415079 0.31095 -0.448048
-0.444818 0.533059 0.312664
-0.412049 -0.531512 0.302144
0.475816 -0.407918 0.291501
-0.48456 -0.43189 0.336071
-0.413945 0.331663 0.526833
-0.366066 0.300245 -0.496317
-0.393556 0.555006 0.249316
-0.331127 -0.492472 0.313342
0.478134 -0.382828 0.337183
-0.446734 -0.399625 0.294282
-0.383024 0.266082 0.487104
-0.400305 0.350005 -0.529597
-0.444435 0.482188 0.348641
-0.391617 -0.497281 0.338528
0.507411 -0.401701 0.234548
-0.515497 -0.425087 0.281094
-0.431506 0.304794 0.484366
-0.42285 0.285496 -0.508535
-0.359092 0.492982 0.319994
-0.366878 -0.516612 0.316116
0.501258 -0.402524 0.315251
-0.495315 -0.389447 0.356073
-0.451885 0.357804 0.495227
-0.452973 0.348713 -0.510661
-0.42894 0.502934 0.3255
-0.420966 -0.500735 0.363328
0.564783 -0.405496 0.360102
-0.533329 -0.428802 0.352138
-0.367272 0.399418 0.426353
-0.41062 0.344469 -0.516947
-0.409236 0.464259 0.375639
-0.436257 -0.529234 0.380254
0.4629 -0.364432 0.344517
-0.509655 -0.424248 0.3416
-0.406135 0.329384 0.510602
-0.385311 0.378567 -0.47031
-0.385581 0.486092 0.303551
-0.414625 -0.462262 0.379766
0.483729 -0.353731 0.395898
-0.51002 -0.386654 0.425301
-0.390575 0.395885 0.513131
-0.414722 0.375099 -0.519792
-0.397268 0.528124 0.417291
-0.398818 -0.488776 0.39375
0.565621 -0.411727 0.415058
-0.494634 -0.393671 0.376343
-0.420291 0.413883 0.502989
-0.430002 0.356881 -0.480285
-0.389558 0.502254 0.36774
-0.395451 -0.476604 0.369265
0.51019 -0.410284 0.406966
-0.454398 -0.360131 0.340975
-0.352503 0.420776 0.523255
-0.416677 0.393855 -0.455484
-0.390984 0.456197 0.345225
-0.388496 -0.517004 0.391257
0.483391 -0.401964 0.350367
-0.500536 -0.410731 0.430192
-0.409919 0.435998 0.547844
-0.413582 0.357666 -0.470895
-0.419749 0.498446 0.450209
-0.403032 -0.509233 0.401134
0.444594 -0.393397 0.416856
-0.524424 -0.388922 0.374141
-0.388286 0.389422 0.460867
-0.421934 0.410061 -0.492
-0.420021 0.503589 0.423977
-0.401974 -0.500377 0.394671
0.516123 -0.439245 0.427928
-0.539897 -0.386621 0.433681
-0.421873 0.40624 0.492495
-0.433916 0.418539 -0.495804
-0.377857 0.456949 0.463173
-0.441956 -0.496461 0.418325
0.479775 -0.36225 0.422626
-0.476538 -0.429969 0.446481
-0.364728 0.399326 0.507181
-0.4165 0.434366 -0.522491
-0.47591 0.552443 0.377134
-0.427026 -0.459358 0.437436
0.579035 -0.427921 0.455371
-0.547478 -0.406514 0.401725
-0.425027 0.494774 0.490298
-0.423798 0.464682 -0.484627
-0.385769 0.555035 0.411557
-0.394327 -0.496679 0.418221
0.530405 -0.44277 0.468367
-0.485325 -0.4243 0.472106
-0.43764 0.432109 0.522645
-0.441315 0.435938 -0.449939
-0.357591 0.476552 0.424047
-0.451171 -0.559402 0.419579
0.508227 -0.428273 0.43268
-0.512532 -0.444697 0.429369
-0.403426 0.477369 0.533966
-0.441436 0.467705 -0.488342
-0.414739 0.471713 0.430916
-0.415022 -0.488872 0.486622
0.521964 -0.391771 0.524306
-0.474229 -0.42247 0.434023
-0.4612 0.468856 0.512779
-0.43258 0.464113 -0.46994
-0.379276 0.533543 0.433951
-0.411715 -0.546787 0.480123
0.510523 -0.382688 0.427369
-0.503565 -0.393487 0.482032
-0.391788 0.471418 0.576433
-0.438278 0.482004 -0.547933
-0.394458 0.51625 0.513531
-0.459005 -0.5102 0.441278
0.461003 -0.387327 0.478172
-0.519278 -0.402264 0.496481
-0.430782 0.499886 0.468034
-0.418571 0.465835 -0.469666
-0.391229 0.508474 0.469823
-0.45485 -0.468398 0.512754
0.533955 -0.36317 0.486106
-0.512882 -0.403985 0.537404
-0.442023 0.556023 0.528833
-0.344663 0.475564 -0.515735
-0.430082 0.566847 0.481925
-0.423446 -0.49322 0.482141
0.469878 -0.439672 0.512711
-0.50364 -0.391901 0.496464
-0.379262 -0.51686 0.54636
-0.385175 -0.5 -0.473233
-0.407471 0.524882 -0.429655
-0.406434 -0.528994 -0.497097
0.464531 -0.412983 -0.52261
-0.440454 -0.376981 -0.508688
-0.446208 -0.521192 0.490406
-0.38133 -0.486299 -0.471657
-0.421781 0.465022 -0.50024
-0.35017 -0.471002 -0.510922
0.544273 -0.398926 -0.476081
-0.475087 -0.405162 -0.512231
-0.400641 -0.467565 0.521825
-0.371954 -0.428531 -0.53055
-0.384379 0.508296 -0.481771
-0.36019 -0.492653 -0.540495
0.509701 -0.402365 -0.473414
-0.529139 -0.419735 -0.476676
-0.389946 -0.509201 0.467618
-0.395052 -0.484574 -0.521822
-0.416229 0.449458 -0.457272
-0.374307 -0.527744 -0.521443
0.479826 -0.410033 -0.499807
-0.492915 -0.410978 -0.44326
-0.403882 -0.480989 0.511662
-0.381885 -0.470367 -0.475697
-0.390226 0.505648 -0.465667
-0.382288 -0.457229 -0.487707
0.466892 -0.426929 -0.429439
-0.513982 -0.371198 -0.440827
-0.42513 -0.446326 0.544669
-0.447685 -0.480337 -0.476361
-0.37424 0.491125 -0.420314
-0.380174 -0.550782 -0.479958
0.532709 -0.384654 -0.441135
-0.495804 -0.389063 -0.454269
-0.39886 -0.424083 0.551171
-0.397061 -0.418458 -0.471076
-0.413705 0.475684 -0.449567
-0.373209 -0.50513 -0.495636
0.475492 -0.413855 -0.457345
-0.487416 -0.423747 -0.445811
-0.47116 -0.455407 0.520429
-0.436969 -0.420368 -0.469731
-0.428128 0.506624 -0.424171
-0.399648 -0.481031 -0.464489
0.463899 -0.352452 -0.428049
-0.49516 -0.433383 -0.45196
-0.376804 -0.45103 0.541766
-0.400681 -0.402775 -0.484438
-0.433601 0.5119 -0.431407
-0.422722 -0.488888 -0.438029
0.491464 -0.452423 -0.408273
-0.502202 -0.387987 -0.410619
-0.365961 -0.395684 0.511253
-0.411069 -0.451609 -0.538208
-0.391636 0.509546 -0.426277
-0.397847 -0.553374 -0.431262
0.520076 -0.393277 -0.397233
-0.493889 -0.37118 -0.392516
-0.381099 -0.359753 0.526833
-0.369486 -0.430365 -0.500704
-0.446152 0.534066 -0.381334
-0.420635 -0.506139 -0.413303
0.520579 -0.410611 -0.382377
-0.537164 -0.378452 -0.399224
-0.431631 -0.413659 0.513939
-0.414969 -0.398246 -0.522998
-0.342156 0.505995 -0.399953
-0.435927 -0.515104 -0.368883
0.580959 -0.428151 -0.411698
-0.475453 -0.344656 -0.429802
-0.385278 -0.361741 0.454448
-0.388729 -0.375001 -0.517698
-0.426101 0.504344 -0.315745
-0.398975 -0.463303 -0.358907
0.509677 -0.388744 -0.379439
-0.515955 -0.35356 -0.380173
-0.373461 -0.381376 0.487704
-0.403692 -0.298531 -0.510091
-0.407331 0.521932 -0.354949
-0.344511 -0.479612 -0.427591
0.48666 -0.36868 -0.411801
-0.468174 -0.367346 -0.349701
-0.358967 -0.362485 0.509896
-0.37288 -0.333802 -0.523048
-0.440167 0.480388 -0.371082
-0.403649 -0.467025 -0.334516
0.476837 -0.377933 -0.317615
-0.500559 -0.336066 -0.415128
-0.458965 -0.363277 0.510461
-0.396129 -0.383192 -0.491631
-0.380211 0.481956 -0.323303
-0.437843 -0.502565 -0.372344
0.490913 -0.373973 -0.39301
-0.494363 -0.396094 -0.357606
-0.451179 -0.310664 0.473622
-0.374702 -0.382765 -0.507122
-0.424209 0.473905 -0.370592
-0.439676 -0.474172 -0.308334
0.528299 -0.451941 -0.278677
-0.518167 -0.371398 -0.332596
-0.394382 -0.324475 0.530428
-0.387379 -0.303278 -0.470233
-0.381325 0.468921 -0.334256
-0.408184 -0.475655 -0.292081
0.487562 -0.442634 -0.357266
-0.471419 -0.376764 -0.290882
-0.381147 -0.321328 0.489481
-0.393872 -0.286369 -0.52759
-0.38857 0.466585 -0.334583
-0.365445 -0.45365 -0.360907
0.457746 -0.420771 -0.289142
-0.481665 -0.340598 -0.325767
-0.393693 -0.282118 0.51353
-0.434738 -0.320398 -0.418776
-0.453362 0.53063 -0.306923
-0.39382 -0.489952 -0.252447
0.545462 -0.437539 -0.320411
-0.514248 -0.384672 -0.284723
-0.428539 -0.318597 0.536876
-0.406301 -0.26271 -0.5384
-0.43574 0.494189 -0.291848
-0.393069 -0.459904 -0.312678
0.451466 -0.436405 -0.296332
-0.457349 -0.364118 -0.289075
-0.375506 -0.319219 0.43679
-0.367949 -0.236465 -0.496243
-0.331616 0.514985 -0.319279
-0.393035 -0.432965 -0.272472
0.472016 -0.396959 -0.290595
-0.511569 -0.403558 -0.302177
-0.321085 -0.292381 0.528933
-0.402778 -0.235489 -0.445317
-0.459785 0.472624 -0.31273
-0.387332 -0.501556 -0.230796
0.518344 -0.344761 -0.235612
-0.483926 -0.376847 -0.273036
-0.385571 -0.257632 0.517259
-0.398584 -0.294675 -0.530661
-0.398779 0.551779 -0.264811
-0.417105 -0.456982 -0.255101
0.526287 -0.412892 -0.28304
-0.503076 -0.394577 -0.246252
-0.430419 -0.210068 0.473908
-0.381715 -0.284813 -0.519339
-0.39778 0.494119 -0.214117
-0.419649 -0.485384 -0.301221
0.516021 -0.398756 -0.230495
-0.48006 -0.360311 -0.328695
-0.369523 -0.308693 0.505042
-0.389868 -0.277728 -0.497464
-0.432277 0.494681 -0.252187
-0.436687 -0.466751 -0.264755
0.447509 -0.395542 -0.267861
-0.5183 -0.37346 -0.223706
-0.352597 -0.247442 0.489904
-0.426093 -0.210652 -0.486142
-0.339368 0.49288 -0.251064
-0.481447 -0.512072 -0.254571
0.511667 -0.447869 -0.23934
-0.484046 -0.391569 -0.267349
-0.418435 -0.226101 0.55758
-0.339422 -0.217959 -0.480141
-0.391241 0.54744 -0.250425
-0.41365 -0.520764 -0.19303
0.511929 -0.419835 -0.281059
-0.560303 -0.447385 -0.209204
-0.369676 -0.229452 0.488853
-0.399602 -0.23551 -0.468291
-0.410274 0.480055 -0.234112
-0.347442 -0.470937 -0.210233
0.479222 -0.404986 -0.233194
-0.498907 -0.420568 -0.182902
-0.41392 -0.162467 0.529226
-0.387611 -0.170622 -0.492891
-0.372559 0.493146 -0.212746
-0.407209 -0.474632 -0.206187
0.512391 -0.453236 -0.213018
-0.491592 -0.374483 -0.196513
-0.376203 -0.17845 0.477469
-0.455171 -0.205507 -0.524304
-0.405768 0.484889 -0.204938
-0.453744 -0.49397 -0.173748
0.462517 -0.40643 -0.151372
-0.495443 -0.398375 -0.194018
-0.413478 -0.211016 0.444223
-0.373799 -0.196616 -0.494281
-0.394063 0.508989 -0.198878
-0.387202 -0.494342 -0.174534
0.531748 -0.41114 -0.126972
-0.484704 -0.372861 -0.244716
-0.434032 -0.175268 0.47875
-0.392119 -0.179464 -0.48749
-0.377179 0.458124 -0.149349
-0.341428 -0.52363 -0.163277
0.524497 -0.393078 -0.163689
-0.536425 -0.390349 -0.167781
-0.4049 -0.140235 0.510529
-0.389066 -0.150263 -0.489257
-0.419866 0.511222 -0.114187
-0.366556 -0.527155 -0.177599
0.488468 -0.411559 -0.190181
-0.489209 -0.428764 -0.144193
-0.408452 -0.141287 0.48834
-0.409156 -0.17798 -0.48872
-0.408168 0.50693 -0.180978
-0.377712 -0.507729 -0.17611
0.516042 -0.355603 -0.148287
-0.487643 -0.428113 -0.131852
-0.348207 -0.166951 0.555093
-0.413322 -0.175362 -0.520057
-0.359871 0.502055 -0.120215
-0.367288 -0.496445 -0.137602
0.523986 -0.385639 -0.142055
-0.497074 -0.402485 -0.165094
-0.401402 -0.139058 0.497674
-0.347459 -0.14184 -0.474182
-0.425328 0.46086 -0.176958
-0.41586 -0.509802 -0.10056
0.49492 -0.399607 -0.076944
-0.51776 -0.37986 -0.128536
-0.41383 -0.129564 0.504292
-0.398121 -0.0405081 -0.546688
-0.376635 0.529654 -0.18609
-0.38886 -0.485292 -0.169293
0.554089 -0.370014 -0.115887
-0.510401 -0.394326 -0.104364
-0.468453 -0.112096 0.490507
-0.428697 -0.122085 -0.549626
-0.424473 0.471205 -0.17746
-0.344757 -0.508265 -0.104706
0.501434 -0.46321 -0.113844
-0.467082 -0.440549 -0.0601144
-0.379872 -0.117366 0.496138
-0.397368 -0.114142 -0.472256
-0.344806 0.550415 -0.054136
-0.387298 -0.480021 -0.157959
0.475697 -0.403937 -0.0745707
-0.510277 -0.415879 -0.0979845
-0.421143 -0.116649 0.503056
-0.40414 -0.0928186 -0.513699
-0.426097 0.543956 -0.0346234
-0.429893 -0.438061 -0.0853424
0.547755 -0.369751 -0.066324
-0.503781 -0.371394 -0.0396066
-0.337886 -0.0742562 0.520659
-0.400588 -0.0811968 -0.519305
-0.389088 0.568546 -0.108671
-0.390164 -0.532762 -0.0628237
0.526695 -0.449067 -0.0714011
-0.491229 -0.400758 -0.101538
-0.389172 -0.0536924 0.47788
-0.350139 0.00717364 -0.499492
-0.448433 0.531648 -0.0705384
-0.335582 -0.50063 -0.0817061
0.441504 -0.373354 -0.0614061
-0.482272 -0.310113 -0.0862723
-0.406873 -0.0544133 0.471987
-0.370184 -0.0618241 -0.493641
-0.454129 0.523922 -0.0915465
-0.335721 -0.456931 -0.0488313
0.529861 -0.443003 -0.0787108
-0.473515 -0.3876 -0.0198556
-0.405242 -0.00185041 0.489729
-0.419104 -0.101675 -0.481626
-0.424488 0.488567 -0.0683174
-0.401788 -0.447206 -0.0595068
0.496438 -0.4021 -0.0240664
-0.548102 -0.335576 -0.0641204
-0.38252 -0.0855764 0.477636
-0.373159 -0.0257502 -0.543214
-0.356663 0.519491 -0.063551
-0.376016 -0.495365 -0.0305316
0.482572 -0.448363 -0.0332475
-0.549691 -0.400515 -0.0229835
-0.378028 -0.0447594 0.521763
-0.398513 -0.0617017 -0.479471
-0.38592 0.501269 -0.00129445
-0.403142 -0.52391 -0.0163266
0.513205 -0.355318 -0.023614
-0.530037 -0.419628 -0.00644071
-0.382748 -0.00393167 0.446897
-0.376868 -0.0472424 -0.474565
-0.418985 0.476009 -0.0469166
-0.411183 -0.484668 -0.0252129
0.509616 -0.387362 -0.0217089
-0.533438 -0.458458 -0.0497437
-0.422942 -0.0217061 0.541843
-0.397709 -0.0264833 -0.549277
-0.379403 0.52949 -0.0130601
-0.473536 -0.427299 0.0403098
0.558757 -0.390531 -0.0184378
-0.545131 -0.338904 -0.0266027
-0.436275 -0.0176477 0.486757
-0.385263 -0.00116679 -0.524756
-0.370838 0.539496 0.0325895
-0.386755 -0.500762 -0.0128709
0.470151 -0.35607 0.0431594
-0.589696 -0.402463 -0.0119801
-0.400016 -0.00299405 0.47745
-0.408762 -0.00385278 -0.493624
-0.389699 0.412117 -0.0429483
-0.372033 -0.435214 0.0255683
0.478599 -0.388716 0.0337781
-0.512595 -0.399772 -0.0121891
-0.389851 0.00424708 0.507509
-0.405804 0.0422032 -0.496372
-0.310835 0.465688 0.0597631
-0.425477 -0.523038 -0.00669833
0.52384 -0.36638 0.0201417
-0.458494 -0.389219 0.0644428
-0.465434 0.014682 0.515477
-0.435887 0.0837218 -0.520105
-0.426976 0.499004 -0.0198939
-0.39178 -0.527146 0.0478988
0.50928 -0.45474 0.0576362
-0.554592 -0.401153 -0.0303311
-0.384236 -0.00522774 0.505569
-0.362601 0.0302273 -0.484649
-0.454602 0.476385 0.00823659
-0.41343 -0.492675 0.0448027
0.507621 -0.428502 0.0584278
-0.493639 -0.316444 0.0174233
-0.457511 0.00599547 0.509713
-0.39359 0.0553624 -0.50282
-0.32487 0.496403 0.0262706
-0.438865 -0.511788 0.0632518
0.565121 -0.422446 0.0566681
-0.500464 -0.356884 0.0537899
-0.369428 0.0433221 0.533229
-0.377027 0.0459479 -0.508472
-0.359664 0.493706 0.0903414
-0.466648 -0.504176 0.0376381
0.564046 -0.393074 0.0699346
-0.500726 -0.45837 0.00279608
-0.445979 0.0676897 0.535938
-0.438629 0.0769286 -0.502671
-0.419555 0.490276 0.0763754
-0.39514 -0.548913 0.0863643
0.486828 -0.397036 0.098702
-0.500021 -0.412567 0.0932328
-0.400269 0.0440434 0.528001
-0.402186 0.0675096 -0.509717
-0.454638 0.536115 0.0750897
-0.348991 -0.463794 0.0564127
0.510653 -0.391557 0.0778506
-0.572656 -0.391909 0.044922
-0.39029 0.134849 0.503114
-0.443633 0.140605 -0.511637
-0.423517 0.43409 0.101497
-0.487648 -0.504688 0.0972401
0.514294 -0.383981 0.116371
-0.485047 -0.447547 0.169425
-0.342674 0.0501038 0.440099
-0.390502 0.101472 -0.477408
-0.415345 0.476881 0.0717079
-0.379236 -0.487204 0.14246
0.488945 -0.36552 0.0726556
-0.515638 -0.386086 0.134994
-0.443268 0.114849 0.499064
-0.38053 0.0922124 -0.507047
-0.35532 0.526918 0.131642
-0.354793 -0.475864 0.0729443
0.496739 -0.441368 0.103198
-0.502798 -0.390154 0.0891963
-0.356692 0.12533 0.471419
-0.328402 0.126914 -0.491013
-0.371823 0.480471 0.0951372
-0.39383 -0.550621 0.12874
0.454933 -0.408537 0.152662
-0.493391 -0.385086 0.0809882
-0.393411 0.127842 0.540559
-0.387647 0.0740124 -0.509423
-0.394074 0.532519 0.118304
-0.35628 -0.438203 0.106211
0.522145 -0.401979 0.170388
-0.478382 -0.459592 0.161015
-0.42871 0.182431 0.53614
-0.409623 0.10892 -0.502822
-0.429316 0.552749 0.115234
-0.38458 -0.510285 0.177963
0.494464 -0.412415 0.181639
-0.501513 -0.406841 0.144848
-0.378593 0.180014 0.50303
-0.421903 0.141684 -0.540447
-0.365356 0.480739 0.132119
-0.435515 -0.503506 0.184993
0.521897 -0.385296 0.144123
-0.567936 -0.362649 0.107136
-0.371256 0.147775 0.522087
-0.403434 0.181537 -0.490905
-0.40415 0.541365 0.173715
-0.42343 -0.568168 0.124316
0.510607 -0.360215 0.197391
-0.506289 -0.396547 0.173036
-0.361106 0.215715 0.501599
-0.451624 0.146821 -0.460513
-0.384043 0.490175 0.203347
-0.495495 -0.505418 0.195862
0.531856 -0.37658 0.150513
-0.52893 -0.402179 0.158395
-0.414163 0.213848 0.463682
-0.410998 0.18442 -0.504022
-0.432235 0.507692 0.17469
-0.488122 -0.476941 0.222901
0.496426 -0.387832 0.200824
-0.520156 -0.441585 0.177777
-0.424863 0.232879 0.576525
-0.425736 0.197724 -0.496064
-0.356792 0.517336 0.184856
-0.346223 -0.490245 0.206331
0.513388 -0.364816 0.122595
-0.527105 -0.413507 0.156958
-0.437371 0.218866 0.559588
-0.391319 0.165963 -0.47897
-0.333805 0.496646 0.181823
-0.341068 -0.522221 0.193658
0.53665 -0.452399 0.179168
-0.460865 -0.400801 0.222332
-0.391404 0.222648 0.522065
-0.363233 0.217949 -0.530736
-0.409801 0.482693 0.189123
-0.415938 -0.488613 0.202508
0.46758 -0.457783 0.200388
-0.500309 -0.44092 0.175357
-0.417743 0.19923 0.477156
-0.376712 0.205558 -0.43898
-0.382299 0.448221 0.249802
-0.419624 -0.525873 0.231028
0.45027 -0.335145 0.214072
-0.500956 -0.452577 0.205436
-0.422554 0.178765 0.528543
-0.39175 0.238328 -0.540137
-0.393331 0.470005 0.24416
-0.396713 -0.464929 0.236905
0.51411 -0.401457 0.263353
-0.514324 -0.376126 0.234809
-0.385657 0.201302 0.499882
-0.474041 0.255765 -0.510879
-0.38827 0.473198 0.217373
-0.391401 -0.493948 0.262109
0.490358 -0.373455 0.29379
-0.49087 -0.397093 0.289322
-0.363206 0.301504 0.494876
-0.430939 0.251937 -0.516725
-0.393241 0.488571 0.219195
-0.365408 -0.562645 0.268637
0.505465 -0.423687 0.273843
-0.492016 -0.390177 0.291165
-0.36695 0.25818 0.500094
-0.381107 0.306229 -0.520971
-0.33854 0.574219 0.289338
-0.323431 -0.451764 0.284596
0.502689 -0.473116 0.332494
-0.476625 -0.403079 0.234662
-0.434313 0.26035 0.564293
-0.462049 0.248079 -0.56919
-0.390439 0.495375 0.271923
-0.427526 -0.527122 0.274073
0.450657 -0.36497 0.237236
-0.551549 -0.515064 0.255594
-0.373097 0.343543 0.509387
-0.416517 0.275622 -0.519818
-0.444336 0.549982 0.272906
-0.414122 -0.455141 0.305326
0.505243 -0.389994 0.256147
-0.503349 -0.374046 0.287385
-0.40323 0.290229 0.515543
-0.44065 0.261461 -0.508916
-0.397296 0.495596 0.280486
-0.437575 -0.487012 0.247865
0.502421 -0.408036 0.267545
-0.500153 -0.419806 0.321192
-0.394439 0.317442 0.512
-0.451369 0.248328 -0.527637
-0.419369 0.502201 0.26615
-0.393197 -0.468515 0.257351
0.447471 -0.410124 0.295003
-0.528383 -0.410169 0.285645
-0.390425 0.291533 0.530969
-0.435044 0.248044 -0.493547
-0.396198 0.537627 0.356859
-0.366902 -0.515717 0.389655
0.570188 -0.413038 0.300973
-0.537711 -0.464243 0.363749
-0.462909 0.329929 0.483869
-0.395534 0.302595 -0.50672
-0.434688 0.48268 0.329602
-0.428647 -0.485436 0.283476
0.47646 -0.391146 0.298187
-0.461351 -0.409015 0.280869
-0.369383 0.268481 0.530173
-0.337216 0.282157 -0.517143
-0.411731 0.522341 0.295295
-0.384318 -0.50238 0.307069
0.517743 -0.402633 0.304392
-0.484492 -0.470901 0.376268
-0.35119 0.356947 0.519941
-0.361443 0.310005 -0.51059
-0.37466 0.481945 0.315073
-0.438642 -0.535058 0.320016
0.468547 -0.427457 0.372563
-0.548832 -0.384424 0.367972
-0.411434 0.407421 0.495307
-0.437534 0.351193 -0.517443
-0.379693 0.571493 0.368165
-0.409013 -0.543694 0.347216
0.528668 -0.373377 0.297611
-0.449215 -0.449435 0.311898
-0.348205 0.342577 0.498031
-0.418023 0.338883 -0.481415
-0.369043 0.499148 0.349397
-0.404032 -0.494337 0.344606
0.532415 -0.39144 0.38734
-0.505027 -0.437069 0.356761
-0.395757 0.334616 0.500698
-0.41526 0.328644 -0.531483
-0.415413 0.466799 0.33826
-0.34751 -0.48918 0.3585
0.452988 -0.388209 0.389392
-0.524528 -0.394867 0.337782
-0.438885 0.392308 0.435211
-0.416213 0.418574 -0.509754
-0.407248 0.548879 0.375326
-0.391975 -0.483279 0.371532
0.476787 -0.398421 0.368873
-0.502109 -0.407961 0.447302
-0.379359 0.383682 0.491056
-0.355904 0.371884 -0.502141
-0.430454 0.467747 0.365518
-0.37799 -0.48839 0.432237
0.532537 -0.380224 0.351949
-0.487309 -0.408031 0.394205
-0.309085 0.399722 0.518994
-0.377155 0.347576 -0.537244
-0.368883 0.482371 0.363824
-0.391387 -0.486587 0.367509
0.473662 -0.4283 0.422836
-0.486806 -0.337212 0.344659
-0.455834 0.394987 0.435599
-0.425313 0.445914 -0.487502
-0.432897 0.49837 0.414573
-0.375345 -0.457617 0.41806
0.475868 -0.362626 0.38406
-0.5302 -0.431506 0.434295
-0.438257 0.409543 0.504524
-0.423616 0.452266 -0.515749
-0.404837 0.537586 0.422301
-0.441082 -0.507408 0.425451
0.492553 -0.428029 0.44671
-0.517337 -0.351271 0.414221
-0.425655 0.458364 0.495962
-0.439154 0.437743 -0.45745
-0.437352 0.504018 0.379425
-0.429764 -0.505647 0.389882
0.507511 -0.358903 0.464127
-0.504126 -0.419777 0.386689
-0.404881 0.426628 0.449442
-0.382312 0.413701 -0.536612
-0.416753 0.482312 0.447935
-0.413824 -0.492131 0.417662
0.529735 -0.401813 0.412155
-0.457281 -0.426044 0.480959
-0.407377 0.44611 0.438823
-0.439108 0.485658 -0.493915
-0.358948 0.465182 0.445006
-0.386796 -0.504951 0.469979
0.464042 -0.475387 0.420689
-0.496567 -0.434746 0.474732
-0.453429 0.461128 0.54851
-0.40994 0.424149 -0.533618
-0.342646 0.490191 0.412693
-0.423728 -0.526334 0.446508
0.535009 -0.397686 0.438999
-0.520129 -0.434607 0.465737
-0.363743 0.44726 0.471351
-0.426608 0.487185 -0.493082
-0.416535 0.487389 0.443
-0.384015 -0.463136 0.495001
0.479812 -0.422851 0.464378
-0.494791 -0.399355 0.42228
-0.417917 0.45214 0.525535
-0.35901 0.487295 -0.46635
-0.453533 0.488055 0.45099
-0.422075 -0.499259 0.423506
0.472687 -0.390733 0.486707
-0.48798 -0.413099 0.50131
-0.398173 0.462118 0.479133
-0.376701 0.509236 -0.437045
-0.43837 0.462117 0.484661
-0.408222 -0.533756 0.450262
0.527363 -0.380291 0.509966
-0.500952 -0.485534 0.490082
-0.39857 0.475048 0.546073
-0.335539 0.456018 -0.490135
-0.371624 0.494038 0.443059
-0.420754 -0.555608 0.429247
0.536615 -0.416109 0.487467
-0.469461 -0.416206 0.523312
-0.363022 -0.526 0.505527
-0.38958 -0.481844 -0.514335
-0.390396 0.499266 -0.46976
-0.388794 -0.486756 -0.449768
0.47928 -0.397916 -0.434803
-0.490774 -0.348397 -0.489147
-0.442378 -0.507139 0.456608
-0.414037 -0.443449 -0.458118
-0.359831 0.514584 -0.5318
-0.348242 -0.492307 -0.531762
0.47422 -0.351475 -0.48874
-0.536934 -0.38522 -0.538608
-0.354837 -0.471615 0.511814
-0.397771 -0.48573 -0.491184
-0.386718 0.512851 -0.481771
-0.392958 -0.542515 -0.507997
0.513289 -0.369023 -0.413503
-0.501205 -0.355774 -0.511035
-0.364237 -0.45649 0.518756
-0.389213 -0.523525 -0.43105
-0.344327 0.474946 -0.465215
-0.350613 -0.546355 -0.503905
0.465558 -0.422989 -0.488002
-0.456689 -0.375667 -0.457744
-0.379556 -0.466072 0.508447
-0.39872 -0.45244 -0.49191
-0.30419 0.506662 -0.454351
-0.377651 -0.514673 -0.465547
0.491165 -0.420695 -0.463636
-0.50664 -0.423627 -0.476026
-0.361289 -0.442304 0.514917
-0.418972 -0.458827 -0.534478
-0.403796 0.571278 -0.507105
-0.380342 -0.475292 -0.452598
0.476557 -0.379919 -0.445183
-0.495585 -0.386675 -0.453414
-0.338624 -0.394184 0.490489
-0.392187 -0.427911 -0.508434
-0.408991 0.543819 -0.442198
-0.45559 -0.49761 -0.454886
0.470902 -0.361716 -0.434116
-0.521629 -0.382066 -0.442491
-0.382703 -0.400937 0.508203
-0.383276 -0.418778 -0.537265
-0.387085 0.563297 -0.417436
-0.3893 -0.482801 -0.452753
0.457137 -0.408915 -0.434167
-0.486559 -0.408762 -0.44718
-0.367225 -0.418074 0.474428
-0.352176 -0.418181 -0.492531
-0.423045 0.454126 -0.425867
-0.358941 -0.47547 -0.369525
0.519135 -0.376322 -0.361253
-0.44785 -0.399964 -0.351792
-0.382186 -0.446047 0.523049
-0.408663 -0.400705 -0.520217
-0.403501 0.502987 -0.39883
-0.378122 -0.530955 -0.393968
0.514447 -0.393378 -0.415733
-0.504481 -0.357616 -0.376925
-0.458519 -0.386915 0.491715
-0.361614 -0.405129 -0.556362
-0.383198 0.493272 -0.419935
-0.422998 -0.523067 -0.38504
0.519886 -0.36053 -0.420596
-0.474072 -0.344254 -0.374511
-0.432868 -0.414844 0.484097
-0.384197 -0.378295 -0.466077
-0.348109 0.522905 -0.394044
-0.396263 -0.472439 -0.419454
0.510459 -0.436631 -0.383857
-0.525378 -0.456238 -0.363027
-0.417828 -0.392911 0.518783
-0.43921 -0.382571 -0.489021
-0.378275 0.464311 -0.406854
-0.400932 -0.483685 -0.378473
0.505542 -0.403597 -0.377606
-0.441269 -0.409485 -0.337177
-0.392526 -0.456382 0.545027
-0.403117 -0.363788 -0.506865
-0.386034 0.515966 -0.358149
-0.381784 -0.489916 -0.351296
0.48978 -0.372726 -0.331962
-0.481169 -0.361888 -0.327058
-0.366724 -0.363856 0.496203
-0.373608 -0.345356 -0.513522
-0.425113 0.458216 -0.38951
-0.346323 -0.481787 -0.377395
0.514814 -0.403051 -0.334432
-0.51265 -0.367173 -0.370551
-0.386393 -0.331519 0.483321
-0.418353 -0.391159 -0.512786
