ply
format ascii 1.0
comment sampling resolution: 0.01
comment noise level: 0.04
comment Created by Open3D
element vertex 1608
property double x
property double y
property double z
end_header
-0.0576604 -0.316402 -0.50549
-0.107864 0.553034 -0.328458
-0.0269703 -0.464293 -0.41588
0.52094 -0.115674 -0.373309
-0.491373 -0.0326838 -0.359385
-0.025117 -0.367043 0.478571
-0.0742099 -0.311288 -0.468521
0.0169293 0.468759 -0.328743
-0.137515 -0.517056 -0.330487
0.43351 -0.0858348 -0.359979
-0.468553 -0.0895098 -0.316051
-0.0636182 -0.307028 0.529473
-0.0576261 -0.333151 -0.495692
-0.129974 0.497985 -0.298603
-0.0573201 -0.540782 -0.347664
0.494675 -0.0977112 -0.315764
-0.507403 -0.118833 -0.358813
-0.102222 -0.333003 0.520466
-0.0754973 -0.300279 -0.51193
-0.0899181 0.50238 -0.292971
-0.155787 -0.523083 -0.32095
0.557952 -0.0590703 -0.313552
-0.475244 -0.0974255 -0.357676
-0.120203 -0.332154 0.481242
-0.0671499 -0.327326 -0.481442
-0.0947358 0.553883 -0.308536
-0.0999098 -0.487053 -0.268635
0.558363 -0.118705 -0.356584
-0.527518 -0.0667551 -0.338923
-0.0228688 -0.35566 0.475798
-0.00753005 -0.350087 -0.437225
-0.107585 0.46077 -0.370731
-0.0392839 -0.515976 -0.337744
0.517315 -0.0859136 -0.322203
-0.444407 -0.0786025 -0.303117
-0.076825 -0.326598 0.476063
-0.127046 -0.274048 -0.522814
-0.0443494 0.514921 -0.302418
-0.100239 -0.607449 -0.298683
0.479276 -0.0772612 -0.387997
-0.467599 -0.0977082 -0.329065
-0.0942158 -0.248061 0.389712
-0.0634753 -0.29635 -0.512105
-0.106568 0.500953 -0.172565
-0.0930947 -0.514126 -0.325256
0.481914 -0.0268515 -0.345294
-0.552127 -0.0373644 -0.234886
-0.120401 -0.292483 0.487749
-0.00749805 -0.332534 -0.534934
-0.0971966 0.503566 -0.259033
-0.0893266 -0.448099 -0.338586
0.423376 -0.123489 -0.242936
-0.516112 -0.104979 -0.264648
-0.0352962 -0.206472 0.563873
-0.110118 -0.271619 -0.512015
-0.0707154 0.494029 -0.360307
-0.0685096 -0.491541 -0.3111
0.470042 -0.0579742 -0.296692
-0.522056 -0.164564 -0.234189
-0.0956846 -0.297655 0.579934
-0.123944 -0.188625 -0.487882
-0.107189 0.445717 -0.295277
-0.123974 -0.46021 -0.282915
0.546629 -0.0357316 -0.298042
-0.496785 -0.0357183 -0.218489
-0.0951921 -0.254742 0.440242
-0.0179991 -0.246321 -0.564161
-0.0507642 0.480016 -0.259341
-0.0569451 -0.468735 -0.263563
0.482581 -0.0648011 -0.274623
-0.511146 -0.0547849 -0.259416
-0.0334082 -0.231829 0.495671
-0.00720677 -0.222789 -0.52469
-0.0348318 0.552174 -0.176007
-0.0604773 -0.529741 -0.269893
0.494947 -0.0514043 -0.242814
-0.486157 -0.0955704 -0.244646
-0.155604 -0.224215 0.521196
-0.0378697 -0.292235 -0.489438
0.0154364 0.567782 -0.265689
-0.0542063 -0.56248 -0.273247
0.479523 -0.0379095 -0.221492
-0.524204 -0.0286987 -0.224649
-0.108297 -0.189782 0.436985
-0.0245694 -0.215626 -0.494262
-0.122399 0.511113 -0.216462
-0.0635294 -0.538208 -0.230255
0.558858 -0.0798907 -0.299138
-0.433778 -0.0327431 -0.271565
-0.0480756 -0.183093 0.524379
-0.0444526 -0.322665 -0.443586
-0.0513501 0.507394 -0.19701
-0.0278903 -0.511586 -0.209275
0.47432 -0.0351665 -0.213626
-0.438119 -0.101832 -0.226513
-0.0957245 -0.162543 0.489193
-0.0737212 -0.140013 -0.544117
-0.0357205 0.479411 -0.220785
-0.119125 -0.434519 -0.215769
0.510253 -0.0911997 -0.194706
-0.500207 -0.0484983 -0.237624
-0.0574418 -0.125676 0.504461
-0.057264 -0.193916 -0.519408
-0.0703874 0.516271 -0.140246
-0.149918 -0.46593 -0.164907
0.489059 -0.0725498 -0.19826
-0.582122 -0.0815933 -0.108233
-0.0473289 -0.260412 0.564189
-0.125321 -0.0901849 -0.471098
-0.153575 0.476032 -0.256466
-0.064973 -0.487647 -0.163616
0.488135 -0.0861197 -0.133841
-0.448344 -0.0590152 -0.0974718
-0.0462581 -0.241641 0.485593
-0.0353812 -0.0851951 -0.521136
-0.0967774 0.492009 -0.190757
-0.0656937 -0.512773 -0.178637
0.470057 -0.0396301 -0.226087
-0.469605 -0.046136 -0.158227
-0.0971499 -0.162144 0.45819
-0.121988 -0.146765 -0.466394
-0.136038 0.458063 -0.181698
-0.169841 -0.571124 -0.159692
0.501825 -0.141618 -0.197775
-0.419733 -0.106211 -0.179767
-0.127346 -0.119461 0.486907
-0.0667125 -0.197344 -0.479562
-0.204055 0.500353 -0.121834
-0.110032 -0.486148 -0.141742
0.519604 -0.0555342 -0.0721606
-0.49575 -0.0867121 -0.12955
-0.0141196 -0.108492 0.490194
-0.0449166 -0.151333 -0.496392
-0.141026 0.503122 -0.150851
-0.0411036 -0.579204 -0.13563
0.596312 -0.116419 -0.0274987
-0.491719 -0.0268985 -0.102153
-0.10906 -0.185437 0.429965
-0.0134362 -0.0718715 -0.452433
-0.0993053 0.503274 -0.0837112
-0.147296 -0.505251 -0.112871
0.56954 -0.0502615 -0.0986784
-0.527063 -0.0679435 -0.131942
-0.13968 -0.0869302 0.473564
-0.0391431 -0.142929 -0.450125
-0.0936559 0.457458 -0.104243
0.00418104 -0.505809 -0.13405
0.502086 -0.114191 -0.146489
-0.510099 -0.0888859 -0.146849
-0.0866806 -0.147088 0.500302
-0.0758726 -0.101614 -0.564161
-0.101171 0.499146 -0.110087
-0.0970143 -0.499916 -0.082009
0.474404 -0.058708 -0.154125
-0.493438 -0.0865083 -0.107151
-0.0637075 -0.10865 0.451463
-0.106608 -0.107152 -0.565977
-0.0737613 0.607273 -0.0732775
-0.0736057 -0.513608 -0.0473121
0.553807 -0.0500865 -0.0918684
-0.485808 -0.0150148 -0.0773606
-0.117683 -0.0721777 0.450155
-0.10421 -0.0998261 -0.509949
-0.0451652 0.546683 -0.134151
-0.0139494 -0.475744 -0.184294
0.516736 0.013723 -0.0125967
-0.499437 -0.0236365 -0.105438
-0.138879 -0.0677093 0.542334
-0.0497852 -0.088965 -0.556915
-0.062035 0.453894 -0.0550584
-0.0886215 -0.549903 -0.0638598
0.51523 -0.087807 -0.0596266
-0.487396 -0.108933 -0.137456
-0.0793112 -0.0501293 0.477025
-0.112524 -0.0824967 -0.534055
-0.0859941 0.480237 -0.0851473
-0.0441209 -0.487697 0.0152819
0.481562 -0.0558857 -0.0763318
-0.528836 -0.0714834 -0.0929935
-0.041205 -0.0948373 0.47746
-0.125259 -0.0317599 -0.509034
-0.0424822 0.451108 -0.0534601
-0.0575582 -0.43789 -0.0187832
0.470851 -0.107832 -0.0549861
-0.466968 -0.045072 -0.0135663
-0.0761233 -0.00955551 0.531352
-0.0378933 -0.0903985 -0.511381
-0.0534853 0.4993 0.0070936
-0.0809647 -0.463498 -0.00806676
0.451854 -0.101263 -0.0369891
-0.516103 -0.0220448 -0.062691
-0.0639789 0.0352767 0.500836
-0.106873 -0.0461486 -0.524934
0.0109944 0.434799 -0.00787669
-0.109464 -0.521526 -0.035103
0.462831 0.00134378 -0.0652038
-0.571319 -0.121569 -0.0585175
-0.0819981 -0.0855468 0.529751
-0.026859 -0.0652242 -0.482141
-0.064072 0.571685 -0.0979732
-0.101211 -0.474617 -0.0138567
0.427433 -0.12618 0.0231283
-0.557138 -0.0378081 -0.0322499
-0.092023 0.0324021 0.527847
-0.0644699 -0.0568663 -0.532838
-0.0288892 0.538061 -0.0217841
-0.0370041 -0.509926 0.030931
0.490043 -0.0819741 -0.0555808
-0.496959 -0.0606894 -0.0358085
-0.0216729 -0.031721 0.500783
-0.045338 -0.054013 -0.50133
-0.0890892 0.43217 -0.00566345
-0.06722 -0.459393 -0.0409618
0.473654 0.000784283 -0.0262682
-0.54221 -0.0990511 0.0309422
-0.0760442 0.00792846 0.519498
-0.0262418 0.0589216 -0.463035
-0.0589641 0.510969 0.0223265
-0.0851594 -0.51129 -0.0360126
0.542282 -0.111424 -0.0432968
-0.564678 -0.153892 0.00598731
-0.0288143 0.00399632 0.473191
-0.112635 0.015815 -0.493732
-0.102365 0.530721 0.0828553
-0.0620464 -0.48606 0.0554631
0.46715 -0.0755656 -0.0551013
-0.569208 -0.082212 -0.0283917
-0.125453 0.019854 0.521769
-0.0873969 0.0316017 -0.528623
-0.00693572 0.556276 -0.0410083
0.0124517 -0.472277 0.0961351
0.531209 -0.101016 -0.0286633
-0.405814 -0.0689545 0.0796827
-0.0839934 0.0314778 0.445626
-0.0644218 0.0887304 -0.403581
-0.0710726 0.485759 -0.0620697
-0.0896235 -0.47463 0.0261134
0.390351 -0.113803 0.0384891
-0.551582 -0.0604005 -0.0302095
-0.0243003 0.0364077 0.500997
-0.0103056 0.0721742 -0.509223
-0.0660492 0.425006 0.0778271
-0.081251 -0.462116 0.128435
0.550957 0.0159085 0.0438141
-0.542199 -0.143233 -0.0123316
-0.131873 0.101482 0.474363
-0.116239 0.0944132 -0.558574
-0.0199693 0.541774 0.0898113
-0.0777831 -0.527139 0.0550141
0.468108 -0.0710937 0.0415792
-0.492297 -0.0108782 0.0439386
-0.0391108 0.0861269 0.437936
-0.0604676 0.0132624 -0.520175
-0.03505 0.403044 0.0260275
-0.0818006 -0.535851 0.0368846
0.432794 -0.0762464 0.0773866
-0.491615 -0.145111 0.0682182
-0.0710394 0.131953 0.510118
-0.0863354 0.136192 -0.543091
-0.0937953 0.463772 0.0448975
-0.0813607 -0.501584 0.0983913
0.550157 -0.0831083 0.141988
-0.532168 -0.0556567 0.0702101
0.0171821 0.136862 0.418647
-0.0519548 0.0992764 -0.461678
-0.149144 0.500336 0.100325
0.00427397 -0.457853 0.0352107
0.466202 -0.0420396 0.196814
-0.486625 -0.0138628 0.10649
-0.0639583 0.0920889 0.538933
-0.0481594 0.168797 -0.566395
-0.139773 0.501324 0.0683773
-0.0727867 -0.483098 0.11839
0.475629 -0.0817132 0.0566867
-0.537372 -0.101803 0.191224
-0.0195592 0.115709 0.578936
-0.127798 0.0953747 -0.520902
-0.024089 0.469437 0.116387
0.00960721 -0.460395 0.086341
0.523561 -0.0595317 0.192107
-0.496396 -0.0550546 0.147741
-0.0175658 0.160307 0.443452
-0.0698698 0.0547357 -0.537456
-0.12422 0.510634 0.115839
-0.131539 -0.49666 0.112994
0.444221 -0.117377 0.121033
-0.506998 -0.130405 0.118764
-0.0963947 0.117109 0.472967
-0.0647082 0.124133 -0.52874
-0.0699342 0.470284 0.0615434
-0.00491796 -0.55253 0.155696
0.442106 -0.0452137 0.198189
-0.549321 -0.115962 0.135736
-0.105057 0.215779 0.488895
-0.0551355 0.116056 -0.489132
-0.179974 0.483754 0.182677
0.0363604 -0.538691 0.163605
0.541045 -0.0788045 0.118288
-0.537991 -0.0513196 0.145938
-0.0876905 0.229245 0.459546
-0.115334 0.177136 -0.568704
-0.0658839 0.472012 0.124247
-0.0451495 -0.521639 0.186783
0.495678 -0.0831358 0.18444
-0.478805 -0.0425203 0.148424
-0.0635092 0.116165 0.470214
-0.0479932 0.1542 -0.491153
-0.00147895 0.539389 0.151517
-0.113501 -0.516981 0.159189
0.497636 -0.0308631 0.159373
-0.549284 -0.0784832 0.179762
-0.131729 0.179605 0.522421
-0.110262 0.164351 -0.530791
-0.112987 0.552694 0.174198
-0.0677735 -0.440253 0.184318
0.488685 -0.0716523 0.114523
-0.504934 -0.11193 0.138185
-0.15221 0.210701 0.555548
-0.0636047 0.202304 -0.533139
-0.0367643 0.480449 0.197349
-0.146476 -0.524326 0.207763
0.446029 -0.0309173 0.18094
-0.498314 -0.0208865 0.211169
-0.0102804 0.237129 0.520144
-0.0283404 0.264713 -0.458589
-0.0439045 0.492497 0.1976
-0.0438405 -0.458168 0.174777
0.44379 -0.0500175 0.207225
-0.464473 -0.145087 0.15355
-0.119571 0.213515 0.464227
-0.076804 0.192361 -0.472594
-0.116103 0.533209 0.174731
-0.10822 -0.527311 0.19964
0.472265 -0.0621625 0.133519
-0.523399 -0.103498 0.207661
-0.0342917 0.18831 0.501214
-0.0832802 0.198422 -0.496469
-0.00545244 0.464732 0.282702
-0.0893186 -0.552168 0.174579
0.437316 -0.0199357 0.269254
-0.506397 -0.114263 0.206699
-0.119836 0.241366 0.543367
-0.108619 0.184021 -0.493189
-0.0338395 0.418005 0.134801
-0.134885 -0.457659 0.218752
0.515499 -0.0875977 0.175725
-0.511903 -0.0288028 0.179283
-0.0884276 0.257774 0.505657
-0.054785 0.269793 -0.450129
-0.096176 0.514245 0.262357
-0.0974439 -0.504582 0.169938
0.538259 -0.0892894 0.272181
-0.550807 -0.0725275 0.1936
-0.0132724 0.246786 0.472601
-0.0678035 0.232994 -0.502443
-0.0923232 0.549101 0.216072
-0.0491459 -0.431384 0.232131
0.500138 -0.0987515 0.199275
-0.456467 -0.104795 0.29438
-0.107371 0.253017 0.495375
-0.0239404 0.281959 -0.503639
-0.042388 0.509766 0.17319
-0.118653 -0.480024 0.269431
0.543918 -0.0345583 0.168052
-0.529234 -0.147099 0.274654
-0.0575563 0.294606 0.458234
-0.0557472 0.305412 -0.56058
-0.0732756 0.498839 0.236402
-0.103382 -0.472194 0.233913
0.475391 -0.0809522 0.3313
-0.523886 -0.0925102 0.28732
-0.0580317 0.307826 0.502167
-0.0401243 0.317393 -0.462982
-0.102277 0.510559 0.249955
-0.111007 -0.500574 0.256581
0.539097 -0.0900103 0.237852
-0.519152 -0.0597724 0.221484
-0.107305 0.24161 0.440804
-0.104556 0.276745 -0.422561
-0.0163277 0.488148 0.237529
-0.0647236 -0.47745 0.24074
0.515344 -0.0801358 0.289508
-0.506208 -0.0400217 0.282911
-0.0641924 0.297847 0.506627
-0.0562874 0.25442 -0.502902
-0.101212 0.505066 0.312888
-0.110162 -0.482341 0.28252
0.519375 -0.0503849 0.278463
-0.424553 0.0174447 0.356828
-0.0803769 0.281458 0.507704
-0.0495548 0.3326 -0.435679
-0.110887 0.506409 0.257177
-0.0291722 -0.484338 0.339752
0.60435 -0.0329996 0.306233
-0.486016 -0.0405613 0.296592
-0.087047 0.246272 0.41612
-0.0696217 0.352001 -0.486483
-0.0610737 0.529856 0.291852
-0.143735 -0.457691 0.268237
0.521945 -0.0438888 0.22618
-0.503939 -0.0887914 0.3151
-0.11485 0.322784 0.481551
-0.0420493 0.26057 -0.483797
-0.0117494 0.516711 0.311579
-0.0938897 -0.467565 0.28698
0.536036 -0.0267917 0.266967
-0.460068 -0.0583926 0.329582
-0.0368972 0.363986 0.46549
-0.0617138 0.293986 -0.46559
-0.102178 0.533643 0.356725
-0.0716114 -0.502366 0.341644
0.523723 -0.125002 0.408876
-0.597181 -0.0633755 0.390709
-0.0671121 0.370552 0.495335
-0.0860213 0.329393 -0.497022
-0.134994 0.525219 0.354195
-0.074676 -0.491741 0.343825
0.541928 -0.0503325 0.388917
-0.537842 -0.0119681 0.392128
-0.0440356 0.435412 0.486369
-0.0432333 0.352483 -0.529765
-0.127266 0.4449 0.41597
-0.0727958 -0.514895 0.411846
0.607247 -0.087522 0.367192
-0.461812 -0.0628563 0.388214
-0.060473 0.321654 0.468182
-0.123609 0.299724 -0.462763
-0.0383085 0.474578 0.336596
-0.134806 -0.495233 0.35364
0.576939 -0.0952181 0.382585
-0.530419 -0.116117 0.365065
-0.151424 0.35493 0.481195
-0.0920999 0.278558 -0.49868
-0.138105 0.491689 0.300339
-0.0909371 -0.537197 0.281337
0.47799 -0.0752227 0.383598
-0.482843 -0.0488329 0.345035
-0.11111 0.370548 0.48205
-0.0900042 0.391925 -0.494165
-0.0481364 0.515535 0.339297
-0.0297396 -0.562705 0.344876
0.484686 -0.0818687 0.36605
-0.550277 -0.11943 0.437554
-0.0727229 0.383117 0.470061
-0.0712044 0.389333 -0.468616
-0.0774901 0.476422 0.34818
-0.0814817 -0.568287 0.422714
0.501089 -0.0156372 0.417106
-0.506419 -0.0823041 0.344871
-0.0745164 0.401533 0.493286
-0.00573062 0.412482 -0.559632
-0.0889331 0.484583 0.375835
-0.109405 -0.506887 0.347543
0.511126 -0.0625438 0.432741
-0.48415 -0.0476009 0.40333
-0.0731721 0.391887 0.45148
-0.119351 0.352765 -0.522993
-0.0453504 0.50821 0.427583
-0.120924 -0.524234 0.377491
0.488387 -0.0190918 0.473851
-0.496623 -0.0658506 0.349982
-0.0871815 0.404885 0.488587
-0.0950343 0.285304 -0.492887
-0.111394 0.461126 0.38184
-0.0702985 -0.478645 0.454667
0.442589 -0.116178 0.442054
-0.517008 -0.0784828 0.467861
0.0159993 0.480841 0.518406
-0.0383306 0.416351 -0.441699
-0.045319 0.445309 0.493309
-0.0873249 -0.524403 0.393277
0.39912 -0.158786 0.358665
-0.532564 -0.0722175 0.386839
-0.116503 0.412118 0.463984
-0.0926391 0.416847 -0.50717
-0.0781149 0.518864 0.480939
0.00237711 -0.520137 0.38984
0.494377 -0.0331231 0.453444
-0.547235 -0.110701 0.511912
-0.0762503 0.392249 0.491228
-0.119491 0.408668 -0.478857
-0.076885 0.488141 0.447446
-0.0596308 -0.493854 0.398253
0.489912 -0.0785912 0.480127
-0.55013 -0.124703 0.463308
-0.143962 0.467306 0.55113
-0.0546605 0.482262 -0.4724
-0.0916317 0.48151 0.383799
-0.0712277 -0.486246 0.408397
0.570071 -0.0930008 0.510226
-0.530091 -0.015322 0.462742
-0.10188 0.412566 0.526129
-0.110267 0.447771 -0.437209
-0.147889 0.532626 0.459058
-0.0521068 -0.469416 0.458389
0.548865 -0.000181755 0.488024
-0.409349 -0.158551 0.415098
-0.113715 0.386966 0.468833
-0.0377663 0.480114 -0.504833
-0.114814 0.417545 0.512343
-0.102843 -0.467318 0.491994
0.504053 -0.0429676 0.517701
-0.55035 -0.0446087 0.4469
-0.0821115 0.566467 0.510374
-0.0492249 0.521842 -0.442193
-0.0780456 0.515951 0.50749
-0.0257131 -0.495509 0.552458
0.463231 -0.0716375 0.498003
-0.519214 -0.0951698 0.43857
-0.101766 0.485787 0.503805
-0.121986 0.528121 -0.504166
-0.0839869 0.469791 0.48552
-0.0863898 -0.492495 0.529839
0.363449 0.0307118 0.461037
-0.559074 -0.0737642 0.492599
-0.0751225 -0.555878 0.549139
0.00422217 -0.478228 -0.442243
-0.0484866 0.514647 -0.492943
-0.0406638 -0.5044 -0.451847
0.523332 -0.147564 -0.489801
-0.508242 -0.0991162 -0.519159
-0.0794099 -0.397172 0.554395
-0.0791647 -0.511758 -0.499712
-0.128726 0.502369 -0.515153
-0.0881024 -0.544312 -0.519796
0.538149 -0.0147546 -0.529173
-0.460627 -0.0607823 -0.499345
-0.0728477 -0.54625 0.519424
-0.0734216 -0.443873 -0.45911
-0.104252 0.476275 -0.528551
-0.0529412 -0.506926 -0.5203
0.540959 -0.0836821 -0.498391
-0.525301 -0.0609635 -0.4848
-0.0726713 -0.447399 0.443464
-0.077362 -0.477577 -0.507062
-0.0613801 0.559935 -0.439169
-0.0569616 -0.550422 -0.448773
0.520281 -0.122552 -0.507074
-0.542759 0.00510288 -0.542546
0.000558198 -0.472705 0.56161
-0.0523043 -0.498628 -0.568067
-0.09299 0.418968 -0.450496
-0.0663712 -0.506272 -0.478377
0.483744 -0.0639538 -0.535476
-0.589018 -0.0302879 -0.470555
-0.127622 -0.446725 0.499497
-0.0165909 -0.489477 -0.549651
-0.0321344 0.470761 -0.460085
-0.06691 -0.546568 -0.463419
0.455069 -0.105318 -0.448949
-0.541077 -0.0299712 -0.436627
-0.0979836 -0.429948 0.461383
-0.014765 -0.470339 -0.447546
-0.0586167 0.446457 -0.388648
-0.0996335 -0.477369 -0.351025
0.486843 -0.0850465 -0.454702
-0.465909 -0.0932371 -0.455668
-0.0594825 -0.494011 0.539662
0.0328861 -0.499993 -0.502115
0.0177228 0.463505 -0.43911
-0.0431615 -0.417797 -0.457192
0.548805 -0.0243274 -0.492284
-0.437914 -0.117986 -0.400178
-0.11977 -0.483074 0.510025
0.0266838 -0.418115 -0.561247
-0.124802 0.476465 -0.350202
-0.0647836 -0.466754 -0.366044
0.4811 -0.0372144 -0.499177
-0.426833 -0.0340741 -0.404111
-0.0371774 -0.335293 0.542528
-0.0800085 -0.371206 -0.530148
-0.143729 0.544405 -0.473143
-0.0127775 -0.525913 -0.468971
0.655214 -0.06018 -0.41815
-0.512135 0.00388893 -0.38667
-0.0313591 -0.394796 0.483537
-0.103407 -0.2767 -0.452535
-0.0408137 0.493067 -0.395791
-0.13883 -0.5169 -0.341355
0.438136 -0.111422 -0.45791
-0.526548 -0.0724501 -0.359609
-0.0158213 -0.379009 0.530718
-0.0932171 -0.382515 -0.42337
-0.121252 0.403295 -0.339454
-0.0847267 -0.55109 -0.343567
0.577029 -0.0963178 -0.331969
-0.496907 -0.0667417 -0.417876
-0.00482418 -0.382215 0.494906
-0.051934 -0.404917 -0.417624
-0.0800212 0.53209 -0.3607
-0.117825 -0.51816 -0.33325
0.533575 -0.00523785 -0.385143
-0.561804 -0.054888 -0.377629
-0.134484 -0.357991 0.571032
-0.0876547 -0.326468 -0.555466
0.0174476 0.483543 -0.309734
-0.0930631 -0.457341 -0.358903
0.50141 -0.0950129 -0.453003
-0.515387 -0.0890125 -0.412884
-0.158574 -0.415264 0.517037
-0.128886 -0.428829 -0.48523
-0.102844 0.573169 -0.308896
-0.0657626 -0.47414 -0.344056
0.499756 -0.112371 -0.371169
-0.524205 -0.122378 -0.308084
-0.0596329 -0.283943 0.49919
-0.119959 -0.372802 -0.473482
-0.0299317 0.550084 -0.371184
-0.0859881 -0.508228 -0.349026
0.539211 -0.108667 -0.325713
-0.564994 -0.0726982 -0.394008
-0.106009 -0.341511 0.476754
-0.0960257 -0.322719 -0.40061
-0.130153 0.510482 -0.356503
-0.0513589 -0.508335 -0.322036
0.50605 0.00629102 -0.308985
-0.510724 -0.0968737 -0.331223
-0.0794812 -0.37049 0.484722
-0.105881 -0.34407 -0.456424
-0.0934969 0.485731 -0.288704
-0.0347469 -0.629907 -0.315649
0.501065 -0.0876785 -0.355765
-0.506407 -0.0405961 -0.333141
-0.0190844 -0.30368 0.52935
-0.0622485 -0.320703 -0.45138
-0.0525731 0.398364 -0.365397
-0.0828832 -0.575206 -0.337968
0.557255 0.00501626 -0.289184
-0.529617 -0.119392 -0.294105
-0.114791 -0.361117 0.534396
-0.0789572 -0.41904 -0.471787
-0.0622247 0.423004 -0.343978
-0.0635642 -0.508151 -0.292599
0.437245 -0.105834 -0.395543
-0.466566 -0.0597301 -0.300734
0.00784897 -0.209469 0.574595
-0.0199864 -0.313243 -0.469784
-0.068219 0.468661 -0.327933
-0.0763164 -0.512843 -0.280231
0.490164 -0.111109 -0.314418
-0.518881 -0.0485678 -0.321125
-0.0688579 -0.259268 0.482374
-0.0726615 -0.310697 -0.487018
-0.0138293 0.517046 -0.26602
-0.0904268 -0.541559 -0.307839
0.521194 -0.141629 -0.355591
-0.513899 -0.119029 -0.307788
-0.0386484 -0.287211 0.46031
-0.0457822 -0.312799 -0.470615
-0.0232057 0.449097 -0.283058
-0.0229255 -0.484196 -0.300025
0.440162 -0.0541265 -0.237332
-0.501146 -0.0669845 -0.268779
-0.0987716 -0.327527 0.454445
-0.0638924 -0.271518 -0.523846
-0.0991189 0.477087 -0.219287
-0.0923948 -0.487194 -0.347481
0.524619 -0.0474598 -0.296433
-0.492452 -0.0752218 -0.307727
-0.0267315 -0.243025 0.496751
-0.0985347 -0.262657 -0.570798
-0.0498605 0.479414 -0.229876
0.0269436 -0.522651 -0.270316
0.476653 -0.0314042 -0.274903
-0.460434 -0.0384921 -0.197304
-0.012008 -0.330232 0.532121
-0.0998394 -0.167077 -0.533901
-0.00825132 0.437946 -0.216237
-0.0504161 -0.439657 -0.287255
0.490755 -0.0393784 -0.185226
-0.528322 -0.0763749 -0.185615
-0.108566 -0.199012 0.468521
-0.0273145 -0.239554 -0.560705
-0.133245 0.505433 -0.24537
-0.0641149 -0.483059 -0.243307
0.467577 -0.120876 -0.222927
-0.559347 -0.123335 -0.261939
-0.0489154 -0.208988 0.458615
-0.0176667 -0.200466 -0.49347
-0.130316 0.529086 -0.225856
0.0248653 -0.446021 -0.256824
0.565669 -0.103135 -0.231233
-0.543456 -0.0823486 -0.186571
-0.0699303 -0.186545 0.546329
-0.0504925 -0.312325 -0.52666
-0.0530944 0.501478 -0.272511
-0.0606755 -0.498846 -0.243408
0.45648 -0.110499 -0.198884
-0.533264 -0.0893477 -0.222266
-0.03492 -0.193159 0.427401
-0.103751 -0.266982 -0.522669
-0.0661135 0.488982 -0.143633
-0.0652018 -0.552293 -0.226183
0.496651 -0.0990687 -0.229112
-0.518895 -0.12134 -0.168859
-0.121356 -0.166066 0.562251
-0.11591 -0.205675 -0.564926
-0.0541212 0.554307 -0.152529
-0.141059 -0.462381 -0.215598
0.496335 -0.0318895 -0.184707
-0.546793 -0.0770548 -0.1496
-0.114084 -0.190279 0.478603
-0.121717 -0.131066 -0.484833
-0.100976 0.512048 -0.173708
-0.0641736 -0.435499 -0.252047
0.539584 -0.111561 -0.18326
-0.459466 -0.175694 -0.0929769
-0.064679 -0.0792469 0.480736
-0.0370266 -0.199582 -0.498303
-0.0418359 0.499255 -0.216427
-0.0485521 -0.475759 -0.197563
0.522296 -0.079151 -0.185106
-0.535786 -0.113838 -0.163222
0.00900232 -0.126889 0.529006
-0.0962094 -0.116 -0.479257
-0.0418982 0.528499 -0.1096
-0.101508 -0.523872 -0.045091
0.536227 -0.032464 -0.171487
-0.529878 -0.0619059 -0.231414
-0.00261288 -0.212584 0.454672
-0.00452253 -0.251377 -0.543919
-0.0208723 0.492964 -0.180842
-0.0440612 -0.485601 -0.174351
0.47072 -0.0342137 -0.22186
-0.470235 -0.0815911 -0.187192
-0.107182 -0.127321 0.538923
-0.0569256 -0.151582 -0.471275
-0.0899658 0.428507 -0.108979
0.0180073 -0.422431 -0.145183
0.501481 -0.0442305 -0.135524
-0.560873 0.00208136 -0.225198
0.028341 -0.0874916 0.450961
-0.0524709 -0.158167 -0.454158
-0.0293559 0.482486 -0.195427
-0.00356672 -0.468055 -0.118639
0.465714 -0.0954303 -0.0765199
-0.403154 -0.0512963 -0.0819213
-0.0512617 -0.122414 0.416123
-0.0463844 -0.0896358 -0.509723
-0.0502993 0.511898 -0.161905
-0.0636885 -0.467643 -0.130033
0.515452 -0.0122461 -0.172657
-0.508766 -0.0347266 -0.114795
-0.00945337 -0.158704 0.447433
-0.0605943 -0.141447 -0.538838
-0.0956556 0.461942 -0.135793
-0.101813 -0.500367 -0.180087
0.437932 -0.0680474 -0.0705131
-0.551317 0.00209637 -0.0940102
-0.0491856 -0.111161 0.597768
-0.0384319 -0.145215 -0.532711
-0.0419385 0.447606 -0.125408
-0.10015 -0.437123 -0.0676
0.522303 -0.050514 -0.0221314
-0.526271 -0.0717046 -0.100129
-0.0919262 -0.123643 0.517853
-0.0908678 -0.104902 -0.450693
-0.136672 0.494209 -0.148801
-0.106306 -0.520652 -0.0278804
0.514759 -0.0408125 -0.0596928
-0.507558 -0.065384 -0.111054
-0.103329 -0.0391299 0.497736
-0.156436 -0.137698 -0.466283
-0.103491 0.530813 -0.0282175
-0.0648545 -0.524488 -0.000199951
0.540747 -0.0592533 -0.127851
-0.516788 -0.0454306 -0.0916603
-0.0613 -0.0991317 0.491239
-0.0254932 -0.0266044 -0.461539
0.0418685 0.543644 -0.152174
-0.105647 -0.478486 -0.0732243
0.558296 -0.0418881 -0.0726745
-0.420137 -0.0228702 -0.0523885
-0.0381373 -0.0394906 0.397251
-0.0780338 -0.138859 -0.543312
-0.0541176 0.498117 -0.0313687
-0.0445914 -0.458279 -0.101309
0.463039 -0.145173 -0.0276218
-0.55604 -0.016535 -0.144179
-0.094608 -0.0838593 0.498829
-0.140717 -0.0893819 -0.518055
-0.120361 0.510581 -0.0695172
-0.110813 -0.478238 -0.0871235
0.440121 -0.0777167 -0.0885743
-0.511657 -0.112723 -0.0743459
-0.0842261 -0.0494626 0.588297
-0.10246 -0.109901 -0.581642
-0.0984691 0.467931 -0.0446913
-0.0790231 -0.529213 -0.0339825
0.481353 -0.111303 -0.0814115
-0.453808 -0.0371121 -0.0194676
-0.0782509 -0.0382186 0.567225
-0.0651944 0.053611 -0.511256
-0.0741797 0.480681 -0.087493
-0.0456118 -0.519068 -0.106098
0.462276 -0.065995 -0.0733184
-0.468882 -0.0457133 0.0493424
-0.0612333 -0.0386952 0.504587
-0.0489511 0.000601278 -0.388742
-0.055803 0.535627 0.0108226
-0.112638 -0.498271 -0.0432646
0.479976 -0.063737 0.00187441
-0.498676 -0.0458675 -0.0195766
-0.108125 0.00642731 0.456677
-0.0768671 -0.0021859 -0.524271
-0.0311353 0.467333 0.0363818
-0.0785843 -0.536443 -0.0169811
0.484189 -0.0056393 0.0572482
-0.45822 -0.0544342 0.0594125
-0.0654131 -0.0503641 0.464525
-0.115561 0.0820508 -0.469421
-0.0596138 0.473253 0.0703547
0.010855 -0.578623 0.0961536
0.522388 -0.127904 -0.00547018
-0.526705 -0.0995218 -0.00191996
-0.052147 -0.0120688 0.542085
-0.0535922 -0.00459844 -0.5294
-0.089357 0.502143 -0.00237439
-0.0645366 -0.552039 -0.0116465
0.512571 -0.0203618 -0.00112771
-0.519408 -0.131165 0.0455845
-0.0556521 -0.000358922 0.556687
-0.0195304 0.0984543 -0.413201
-0.103054 0.55576 -0.00461507
-0.0997882 -0.50144 -0.077368
0.454921 -0.0916932 0.00954381
-0.491471 -0.09004 0.0113908
-0.110033 -0.0324244 0.475741
-0.143658 0.0283375 -0.478116
-0.0515388 0.490722 0.0840877
-0.0220383 -0.487414 0.0284599
0.561455 -0.0671512 0.0359255
-0.514396 -0.0685571 0.0143099
-0.110996 0.0578356 0.550806
-0.0818904 0.097411 -0.565117
-0.0482168 0.525138 0.0423814
-0.0478362 -0.495258 0.0627641
0.421204 -0.0335295 0.0254324
-0.456063 -0.0756216 0.0373418
-0.0452004 0.0891626 0.467435
-0.0543082 0.0956393 -0.485651
-0.00872818 0.485867 -0.0450935
-0.160239 -0.479801 0.0425047
0.47734 -0.0942349 0.0170753
-0.50172 -0.0855386 -0.0148803
-0.0719436 0.0691822 0.521137
-0.09952 0.0891212 -0.526898
-0.0796039 0.461715 0.0465678
-0.137215 -0.527207 0.113629
0.482962 -0.136015 0.0215254
-0.504615 -0.0222532 0.0729961
-0.0982867 0.0589967 0.471119
-0.0505041 0.0906365 -0.513707
-0.0870868 0.477136 0.0919892
-0.00593714 -0.450081 0.0732465
0.503966 -0.0888663 -0.000142489
-0.47103 -0.0518239 0.0461811
-0.0953838 0.113738 0.521711
-0.00395853 0.0784067 -0.395606
0.019017 0.552002 0.0378023
-0.0491098 -0.480692 0.0148774
0.432433 -0.0750848 0.154655
-0.521045 -0.0935119 0.00204394
-0.11351 0.0611526 0.40754
-0.129988 0.110849 -0.486534
-0.0562155 0.494183 0.0937172
-0.0752516 -0.475082 0.0414761
0.449396 -0.0892589 0.0497663
-0.544132 -0.0699899 0.131856
-0.0475168 0.112465 0.499743
-0.0410818 0.0876094 -0.519418
-0.0670523 0.497782 0.0709764
-0.0417894 -0.545223 0.039135
0.488897 -0.0560176 0.103335
-0.502194 -0.0321408 0.0558012
7.89287e-05 0.156868 0.457743
-0.0349236 0.152875 -0.498315
-0.0742331 0.470679 0.0737792
-0.0681696 -0.521918 0.0818876
0.463647 -0.0606849 0.161286
-0.60246 -0.0583559 0.126559
-0.151722 0.0885211 0.484984
-0.0514526 0.118397 -0.499214
-0.0549599 0.532603 0.0836243
-0.0686492 -0.480904 0.11709
0.47782 -0.127482 0.0811936
-0.459001 -0.090963 0.113295
-0.0356224 0.11958 0.468753
-0.0880845 0.117984 -0.571707
-0.110985 0.466334 0.112795
-0.0750775 -0.48447 0.0960094
0.551569 -0.148556 0.169842
-0.505732 -0.0527024 0.118207
-0.0503329 0.161688 0.445224
-0.0752657 0.108772 -0.534254
-0.0589115 0.510969 0.118256
-0.0643102 -0.530873 0.129931
0.504828 -0.109102 0.176772
-0.473692 0.00704988 0.128105
-0.0226041 0.192925 0.512212
-0.0569994 0.186112 -0.480641
-0.0496779 0.446571 0.150078
-0.101006 -0.517489 0.136599
0.41377 -0.0444007 0.105444
-0.516983 -0.115496 0.143688
-0.138252 0.160902 0.521419
-0.162713 0.112286 -0.430232
-0.0524384 0.451864 0.196888
-0.136213 -0.495558 0.155358
0.507917 -0.0945194 0.1178
-0.519959 -0.0859418 0.152811
-0.0777103 0.132038 0.497641
-0.0269969 0.193557 -0.453856
-0.0200965 0.41726 0.189179
-0.121958 -0.554797 0.147153
0.519519 -0.0630815 0.254831
-0.495318 0.0221839 0.100214
-0.0748103 0.158531 0.468009
-0.0878886 0.160921 -0.42518
-0.109491 0.488158 0.111965
-0.0746547 -0.589734 0.220428
0.520304 -0.0639871 0.205958
-0.515026 -0.0268953 0.19722
-0.0888098 0.193183 0.490287
-0.0863644 0.20691 -0.49825
-0.0530715 0.509681 0.199478
-0.0796077 -0.517884 0.209492
0.450716 -0.0487926 0.199885
-0.515702 -0.0895075 0.176294
-0.081806 0.246354 0.543375
-0.115963 0.241899 -0.464841
-0.045922 0.538299 0.194055
-0.0571308 -0.458069 0.192595
0.470663 -0.0471574 0.172621
-0.492186 -0.0670544 0.132356
-0.117784 0.271464 0.452223
-0.0554268 0.165236 -0.510568
-0.0742935 0.545715 0.325745
-0.0661473 -0.524901 0.238475
0.51589 -0.0661338 0.208903
-0.4344 -0.158086 0.152328
-0.030922 0.251908 0.509051
-0.0586807 0.242645 -0.518451
-0.0525607 0.481321 0.195923
-0.0840045 -0.467991 0.225077
0.517458 -0.076341 0.205852
-0.538265 -0.0538632 0.242668
-0.0819893 0.173641 0.495188
-0.00649186 0.248819 -0.506817
-0.0976397 0.51971 0.258814
-0.069451 -0.532072 0.189189
0.513111 -0.0397846 0.217112
-0.492239 -0.0756584 0.240634
-0.0222506 0.270666 0.507212
-0.0484874 0.276726 -0.446536
-0.0456156 0.506816 0.226093
-0.0642343 -0.553102 0.303908
0.442817 -0.0768502 0.167341
-0.550494 -0.070099 0.224415
-0.0664432 0.240031 0.518379
-0.0389262 0.254896 -0.512723
-0.0539683 0.483824 0.220542
-0.0802379 -0.506669 0.247334
0.488385 -0.13174 0.265577
-0.401619 -0.0735198 0.178765
-0.090986 0.261624 0.481867
-0.113665 0.258895 -0.424963
-0.0258346 0.531798 0.281063
-0.0533251 -0.467958 0.214131
0.472206 -0.108788 0.261803
-0.513027 -0.0332964 0.341246
-0.0618998 0.269093 0.550035
-0.0401926 0.221518 -0.487849
-0.0492207 0.408414 0.291705
-0.0651962 -0.49181 0.260643
0.555575 -0.0726847 0.329674
-0.536079 -0.0440655 0.242154
-0.112443 0.318599 0.522176
-0.0459035 0.321374 -0.504012
-0.0687706 0.423626 0.246945
-0.0700385 -0.594117 0.260336
0.486692 -0.0581138 0.324247
-0.541419 -0.105436 0.257998
-0.0537006 0.313868 0.50977
-0.105945 0.318211 -0.539358
-0.143452 0.51089 0.346932
-0.0596191 -0.498025 0.259806
0.509824 -0.0751702 0.289675
-0.461572 -0.150513 0.297853
-0.0606412 0.349438 0.530933
-0.0010339 0.261582 -0.521945
-0.0544073 0.510337 0.338598
-0.0480442 -0.557107 0.351237
0.568872 -0.060008 0.31006
-0.545844 -0.0821792 0.285612
-0.0400415 0.277848 0.523861
-0.0970898 0.322992 -0.555196
-0.0737492 0.532729 0.326223
-0.0949982 -0.529363 0.296778
0.501556 -0.0900848 0.242755
-0.437167 -0.0714457 0.287285
-0.18084 0.292806 0.526885
-0.0918791 0.274256 -0.487335
-0.00858331 0.466901 0.35873
-0.0810397 -0.507997 0.30513
0.444333 -0.0321085 0.357048
-0.535016 -0.0194608 0.359451
-0.0631522 0.338415 0.492594
-0.0755175 0.299449 -0.541064
-0.101285 0.563512 0.348827
-0.0199189 -0.505438 0.365069
0.517627 -0.0551244 0.388933
-0.476644 -0.0475675 0.384212
-0.0123698 0.287524 0.524851
-0.0381329 0.416346 -0.43977
-0.0216366 0.496958 0.297153
-0.117021 -0.52298 0.280801
0.449131 -0.0722259 0.32858
-0.481075 -0.0302928 0.394092
-0.0830805 0.283408 0.502396
-0.0864387 0.320876 -0.579522
-0.0394766 0.488578 0.41634
0.00453425 -0.519738 0.25632
0.46649 -0.0513845 0.424442
-0.49849 -0.0756135 0.337822
-0.0567454 0.337874 0.520044
-0.0442162 0.382189 -0.453182
-0.0200814 0.46302 0.350295
-0.0617986 -0.501007 0.417808
0.494725 -0.0584181 0.346278
-0.455121 0.000161695 0.423661
-0.0801525 0.355013 0.544881
-0.0840274 0.373481 -0.569946
-0.149624 0.408542 0.394927
-0.0342189 -0.55196 0.416728
0.498911 -0.087044 0.275477
-0.42303 -0.0795191 0.340344
-0.0887256 0.381706 0.582492
-0.112289 0.347054 -0.531882
-0.0854451 0.512627 0.402935
-0.0714521 -0.567651 0.388357
0.530357 -0.0848422 0.419617
-0.485227 -0.0127358 0.373773
-0.0423338 0.299507 0.522899
-0.073561 0.32302 -0.48387
-0.0860764 0.527151 0.359768
-0.0345121 -0.479866 0.33299
0.553612 -0.045771 0.377236
-0.566425 -0.0531779 0.337232
-0.0614845 0.452844 0.55573
-0.15339 0.356444 -0.526598
-0.0654205 0.497846 0.390798
-0.0945613 -0.498057 0.403511
0.489656 -0.082297 0.376928
-0.517567 -0.0947322 0.464861
-0.112921 0.435911 0.558483
-0.110136 0.427791 -0.486598
-0.0957901 0.547289 0.480608
-0.044606 -0.470394 0.39577
0.429612 -0.104241 0.3342
-0.558026 -0.0358865 0.437506
-0.107384 0.436465 0.526783
-0.0364508 0.393342 -0.454777
-0.0809277 0.539567 0.431957
-0.138284 -0.48971 0.392841
0.520314 -0.0398165 0.441035
-0.504532 -0.0662018 0.520465
-0.0757834 0.399789 0.5116
-0.0914454 0.42672 -0.550835
-0.0510931 0.501392 0.358997
-0.0568214 -0.516301 0.443379
0.543958 -0.0802189 0.471696
-0.464569 -0.0920074 0.455018
-0.0462626 0.496958 0.45871
-0.0371578 0.469703 -0.593122
-0.067684 0.446932 0.364587
-0.085979 -0.467855 0.417048
0.475456 -0.091821 0.39878
-0.541196 -0.132466 0.408345
-0.0486413 0.436634 0.498623
-0.0952319 0.474741 -0.459754
-0.0422139 0.465546 0.508021
-0.00980783 -0.504836 0.409383
0.503835 -0.00305699 0.363303
-0.496942 -0.108455 0.345975
-0.109257 0.43272 0.49368
-0.051021 0.483797 -0.499696
-0.099497 0.412625 0.44816
0.00413238 -0.528165 0.441113
0.420118 -0.0975937 0.431096
-0.498071 -0.0787444 0.435092
-0.100558 0.457875 0.523948
-0.108788 0.498304 -0.432854
0.00138792 0.493197 0.388522
-0.070068 -0.472931 0.402234
0.455798 -0.0681634 0.499157
-0.514972 -0.071427 0.480044
-0.108076 0.492819 0.414287
-0.0214104 0.519383 -0.487354
-0.0257487 0.533777 0.506248
-0.0534832 -0.506427 0.496462
0.451676 -0.0420713 0.459179
-0.501382 0.0159583 0.455254
-0.0438682 0.478789 0.477504
-0.0553773 0.495625 -0.491342
-0.0746856 0.477758 0.472217
-0.0169988 -0.475639 0.514364
0.541066 0.000172075 0.541889
-0.518966 -0.0995575 0.485102
-0.0744689 0.525743 0.507245
-0.050427 0.498511 -0.542264
-0.0388685 0.546699 0.508507
-0.125026 -0.475996 0.485722
0.525735 -0.0664118 0.507694
-0.512952 -0.0413243 0.499428
-0.0868662 -0.488857 0.471455
-0.0554285 -0.535868 -0.51463
-0.0657929 0.541409 -0.510889
0.0444151 -0.529368 -0.512418
0.525944 -0.0151681 -0.518281
-0.58091 -0.0576556 -0.561092
-0.0886373 -0.464203 0.488255
-0.0861757 -0.468389 -0.518412
-0.0120626 0.513409 -0.430473
-0.0693677 -0.520873 -0.461583
0.554652 -0.0545058 -0.475755
-0.494191 -0.0515369 -0.459405
-0.0816081 -0.506125 0.498494
-0.0304108 -0.473967 -0.422038
-0.0549931 0.537192 -0.50525
-0.101995 -0.53704 -0.473715
0.447181 -0.0237613 -0.516519
-0.503942 0.0187286 -0.462408
-0.0526734 -0.449089 0.484127
-0.104575 -0.406181 -0.553999
-0.0771941 0.470214 -0.47412
-0.115172 -0.472078 -0.426766
0.519944 -0.0618469 -0.527075
-0.476084 -0.0468333 -0.542959
-0.0722529 -0.482356 0.504972
-0.0486436 -0.538591 -0.495427
-0.101581 0.518136 -0.475996
-0.0700184 -0.535536 -0.425912
0.456745 -0.0337589 -0.424346
-0.440815 -0.126116 -0.417031
-0.0818512 -0.421091 0.490084
-0.0315148 -0.429157 -0.493014
-0.0643658 0.579501 -0.500598
0.0132311 -0.552625 -0.36055
0.569412 -0.134852 -0.387578
-0.498567 -0.128432 -0.421475
-0.0467239 -0.317055 0.590113
-0.0807724 -0.453067 -0.466619
-0.0194938 0.512225 -0.397205
-0.0143171 -0.475617 -0.450852
0.440762 -0.110491 -0.449925
-0.465205 -0.0483243 -0.500922
-0.0523042 -0.425595 0.537429
0.0185555 -0.394507 -0.508269
-0.0431848 0.506714 -0.431896
-0.0681733 -0.448169 -0.438403
0.497513 -0.0376352 -0.490296
-0.488789 -0.0195173 -0.49138
0.0182398 -0.393901 0.48098
0.0112716 -0.433218 -0.472303
-0.0384982 0.53065 -0.383623
-0.0334132 -0.431708 -0.464424
0.51635 -0.0213585 -0.415836
-0.490162 -0.111175 -0.455342
-0.090033 -0.336203 0.515778
-0.0392507 -0.467286 -0.463392
-0.134893 0.48408 -0.421562
-0.0501616 -0.515246 -0.438148
0.49151 -0.0658353 -0.435306
-0.517787 -0.05228 -0.442846
0.0242073 -0.433838 0.442135
-0.0692598 -0.374216 -0.554547
-0.0838811 0.588859 -0.397027
-0.0793226 -0.516114 -0.393103
0.371842 -0.0441083 -0.439166
-0.483425 0.000776367 -0.431354
-0.0379691 -0.369553 0.493488
-0.0541758 -0.404132 -0.557678
-0.0739737 0.467819 -0.331669
-0.0847931 -0.488529 -0.382023
0.510502 -0.0990198 -0.343974
-0.576569 -0.169938 -0.407216
-0.0804157 -0.360594 0.47486
-0.0568241 -0.38031 -0.600677
-0.0890651 0.554232 -0.362408
-0.0403812 -0.535504 -0.323638
0.525533 -0.0584862 -0.362903
-0.489997 -0.0708937 -0.359339
-0.0221754 -0.352348 0.510517
-0.00709099 -0.356674 -0.489075
-0.0812894 0.53892 -0.307276
-0.0205549 -0.528542 -0.391268
0.453249 -0.0193677 -0.386782
-0.486968 -0.0109198 -0.422024
-0.0130942 -0.297926 0.558057
-0.0434577 -0.289707 -0.502858
-0.0199247 0.438566 -0.333537
-0.0482776 -0.500333 -0.352654
0.502606 -0.0473078 -0.357333
-0.549372 -0.049445 -0.416664
-0.0503064 -0.326919 0.515629
0.00124371 -0.40806 -0.57174
-0.00683766 0.477228 -0.381298
-0.0533722 -0.461931 -0.341902
0.47552 -0.142244 -0.287916
-0.47899 -0.0217044 -0.315667
-0.11192 -0.254632 0.519058
-0.0879745 -0.320792 -0.522531
0.0712523 0.434833 -0.311712
-0.0893164 -0.524767 -0.343535
0.502099 -0.0473188 -0.331343
-0.487225 -0.011845 -0.321199
-0.0832114 -0.323431 0.497973
-0.0951485 -0.34598 -0.557731
-0.133761 0.497858 -0.376781
-0.0366964 -0.474441 -0.380115
0.540199 -0.102484 -0.329723
-0.441435 -0.0621986 -0.366208
-0.024319 -0.322399 0.538704
-0.0738832 -0.320309 -0.52639
-0.100143 0.426966 -0.391012
-0.0364236 -0.545072 -0.320667
0.448195 -0.0675745 -0.403265
-0.452794 -0.0193183 -0.311737
-0.086404 -0.302855 0.499055
-0.046845 -0.361556 -0.475597
-0.0735049 0.488383 -0.334081
-0.00644814 -0.467587 -0.316682
0.466088 -0.0609569 -0.343552
-0.42386 -0.0649132 -0.298648
-0.0567824 -0.282438 0.433074
0.00353969 -0.281732 -0.564236
0.00949946 0.482237 -0.305798
-0.0374044 -0.481563 -0.269717
0.491285 -0.0596359 -0.282169
-0.517537 -0.136893 -0.360642
-0.0341658 -0.270576 0.484022
-0.0358163 -0.371684 -0.5612
-0.0692301 0.466593 -0.279819
-0.118504 -0.500761 -0.316265
0.572723 -0.0449042 -0.210859
-0.427513 -0.120911 -0.281651
0.00217617 -0.269595 0.513123
-0.0790559 -0.313394 -0.467304
-0.0849955 0.434774 -0.254297
-0.0314208 -0.524842 -0.265609
0.39861 -0.0504002 -0.301418
-0.529696 -0.0119058 -0.28346
0.00468407 -0.331855 0.526449
-0.0748732 -0.283755 -0.469803
-0.00453622 0.453604 -0.274534
-0.0119261 -0.469666 -0.326104
0.428003 -0.0591669 -0.232717
-0.524974 -0.0520226 -0.223946
-0.0794682 -0.237932 0.467874
-0.0801291 -0.249532 -0.52108
-0.00765824 0.489103 -0.247515
-0.0375788 -0.514639 -0.324411
0.549625 -0.0860695 -0.228433
-0.540217 -0.00419071 -0.257115
-0.0126816 -0.178248 0.52088
-0.0434893 -0.272869 -0.498797
-0.0328291 0.495553 -0.23399
-0.107467 -0.453772 -0.25428
0.523805 -0.0380477 -0.22937
-0.459342 -0.0525418 -0.218182
-0.0411212 -0.235743 0.527402
-0.0529684 -0.202981 -0.537439
0.0111895 0.486981 -0.210572
-0.112071 -0.581484 -0.193957
0.460883 -0.124362 -0.249526
-0.452668 -0.0642664 -0.137774
-0.0737914 -0.290018 0.495755
-0.0500719 -0.164542 -0.462035
-0.153502 0.625527 -0.264964
-0.101489 -0.542423 -0.267112
0.397391 -0.0578604 -0.254069
-0.505752 -0.0499163 -0.217322
-0.0129508 -0.185027 0.527918
-0.0754483 -0.170545 -0.434833
-0.0782481 0.471613 -0.285167
-0.0363179 -0.508549 -0.167768
0.521753 -0.0970048 -0.237769
-0.506623 -0.0663604 -0.208876
-0.0743 -0.176942 0.469681
-0.0446027 -0.178659 -0.500304
0.00328504 0.522818 -0.267562
-0.174657 -0.540356 -0.14485
0.509127 -0.0585973 -0.207123
-0.49408 -0.0581471 -0.209778
-0.0549718 -0.228055 0.462405
-0.0284674 -0.169432 -0.505703
-0.0495569 0.445416 -0.212128
-0.0467075 -0.568015 -0.188194
0.553864 -0.0863192 -0.20082
-0.525894 -0.0716204 -0.176792
0.0226081 -0.136404 0.454312
-0.0471412 -0.185848 -0.522234
-0.0523432 0.552972 -0.234942
-0.0288485 -0.513646 -0.155013
0.494996 -0.04374 -0.199799
-0.467943 0.0126515 -0.201452
-0.132629 -0.234672 0.506514
-0.0145925 -0.193918 -0.519
-0.043856 0.479469 -0.203115
-0.0105844 -0.492694 -0.158763
0.466523 -0.0628283 -0.138224
-0.512819 -0.072029 -0.25786
-0.0500326 -0.112383 0.539159
-0.0259295 -0.140424 -0.46269
-0.0173868 0.459945 -0.148255
-0.088457 -0.537784 -0.180886
0.460211 0.0113329 -0.203047
-0.548188 -0.0298971 -0.113162
-0.0728873 -0.129638 0.459317
-0.0892815 -0.147945 -0.425011
-0.153229 0.467624 -0.0926114
-0.0709445 -0.424575 -0.161233
0.483754 0.00853092 -0.116539
-0.517687 -0.0783854 -0.252945
-0.125192 -0.210764 0.556897
-0.0987007 -0.158242 -0.458538
-0.0642657 0.518728 -0.145614
-0.0673552 -0.472619 -0.133365
0.413056 -0.0429758 -0.161853
-0.540721 -0.0736028 -0.241201
-0.0575427 -0.166288 0.507449
-0.100829 -0.146571 -0.50075
-0.00906798 0.585746 -0.129682
-0.119617 -0.483549 -0.104142
0.585512 -0.0313064 -0.179961
-0.509617 -0.00342576 -0.170994
-0.0707652 -0.165337 0.472517
0.0886012 -0.194881 -0.518374
-0.0196288 0.537338 -0.0931566
-0.082759 -0.47761 -0.16029
0.526727 -0.0436686 -0.109105
-0.462847 -0.0776295 -0.105284
-0.0326711 -0.143526 0.551399
0.00760397 -0.125726 -0.419059
-0.037149 0.540069 -0.12577
-0.0711991 -0.513658 -0.153245
0.484032 -0.0906699 -0.126431
-0.473756 -0.0758485 -0.139362
-0.0721346 -0.089402 0.531343
-0.072941 -0.0900516 -0.435968
-0.108489 0.488025 -0.128585
-0.0409889 -0.515672 -0.148814
0.447056 -0.0497512 -0.0733676
-0.58921 0.00680365 -0.0919071
-0.0392123 -0.13654 0.433223
-0.011949 -0.0701542 -0.540464
-0.036888 0.493853 -0.0143413
-0.0557056 -0.453475 -0.120761
0.557905 -0.0989382 -0.0529181
-0.482081 0.00650699 -0.0600925
-0.0309619 -0.0441675 0.468842
-0.0236703 -0.00273744 -0.512496
-0.0150284 0.514062 -0.092523
-0.0519222 -0.50214 -0.110237
0.509428 -0.0552005 -0.00210705
-0.495718 -0.0598983 -0.0677966
-0.0449853 0.0131016 0.551545
-0.0662595 0.0155327 -0.463344
-0.0827567 0.492152 -0.074892
-0.0861764 -0.541336 -0.0539849
0.46908 -0.0573998 -0.052577
-0.525238 -0.0483685 -0.0396516
-0.0533556 -0.0535569 0.495881
-0.127309 -0.108588 -0.526754
-0.0406972 0.496606 -0.0574467
-0.0111234 -0.518363 -0.0185594
0.548495 -0.0874679 0.0397341
-0.425338 -0.0397461 -0.0599565
-0.00238339 -0.0616793 0.458404
-0.0544013 -0.135514 -0.458643
-0.0193712 0.52345 -0.00248054
-0.0750816 -0.477787 -0.166548
0.488064 -0.0770734 -0.0822832
-0.516748 -0.0790407 -0.0155149
-0.0750506 0.00426092 0.469397
-0.0700374 -0.113072 -0.487459
-0.103106 0.488106 -0.0742667
-0.046563 -0.481912 -0.124695
0.547534 -0.134433 -0.0732872
-0.425244 -0.113289 -0.0559376
-0.114353 -0.0506339 0.485688
-0.0655836 -0.0272586 -0.51423
-0.00716402 0.509613 -0.0731043
-0.0116126 -0.561159 -0.0889523
0.463637 -0.073306 -0.0754795
-0.494055 -0.0576214 0.039853
-0.11602 0.00171615 0.515123
-0.0831853 -0.0848401 -0.5067
-0.0762637 0.495614 -0.0158715
-0.0372935 -0.471841 -0.0719974
0.525095 -0.0790313 -0.0266343
-0.506351 -0.090021 -0.0865443
-0.0482153 -0.0035389 0.472291
-0.043552 0.00207049 -0.512493
-0.0245016 0.512271 0.00274743
-0.060018 -0.52371 0.03066
0.448706 -0.0392511 -0.032035
-0.556828 -0.0628338 -0.0317272
-0.0779776 -0.0391603 0.466746
-0.0786278 -0.00509828 -0.455413
-0.0442182 0.453958 0.00890673
-0.0887372 -0.507557 0.039851
0.548673 -0.00709297 -0.0208924
-0.46833 -0.0482952 0.0381517
-0.0345001 0.0209778 0.509669
-0.13204 -0.0154383 -0.549017
-0.0327302 0.503408 -0.0251908
0.0044294 -0.512047 -0.0402122
0.454984 -0.0520748 0.0482929
-0.540838 -0.12741 0.0688787
-0.0447511 -0.00455762 0.467963
-0.103447 -0.00952279 -0.491963
-0.0507728 0.489334 0.047316
-0.101967 -0.513878 -0.00499226
0.517691 -0.0356983 0.0277433
-0.541445 -0.0421812 0.00837077
0.00412134 0.00590364 0.578876
-0.0850649 -0.022995 -0.487259
-0.0475057 0.518448 0.0238679
-0.00719314 -0.546291 0.0114552
0.448478 -0.064619 0.11241
-0.465716 -0.0484253 0.033031
-0.053395 0.107418 0.50773
-0.055058 0.0405224 -0.563535
-0.116152 0.505827 0.0419562
-0.0664132 -0.540787 0.043024
0.512858 -0.0452422 0.0410701
-0.46502 -0.0433282 0.026213
-0.0561882 0.0635196 0.507575
-0.0360833 0.0447154 -0.528855
-0.0762305 0.53365 0.0209665
-0.00821695 -0.487549 -0.0627
0.474529 -0.0186497 -0.0504626
-0.424121 0.0207313 0.0521403
0.015221 0.0591784 0.485619
-0.00823215 0.0655674 -0.492844
-0.0780671 0.484718 0.0249139
-0.0598302 -0.503232 -0.0052023
0.483302 -0.0187704 0.0363863
-0.481873 -0.0439888 0.0148207
-0.0665309 0.105616 0.500374
-0.0675399 0.0549516 -0.526561
-0.022581 0.539231 0.0491597
-0.0981451 -0.481447 0.060968
0.497256 -0.0342207 0.0941867
-0.484889 -0.0239326 0.0910406
-0.0166616 0.102476 0.549502
0.00223647 0.0663989 -0.589613
-0.108904 0.458447 0.103302
-0.0354559 -0.533773 0.0866389
0.510546 -0.0418872 0.100722
-0.525221 -0.0710693 -0.00686555
-0.0361163 0.14363 0.530519
-0.114459 0.0468679 -0.547025
-0.0283188 0.505234 0.0318938
-0.0917389 -0.55999 0.158274
0.42261 -0.0607617 0.121656
-0.554172 0.00624269 0.105841
-0.0472188 0.177858 0.470812
-0.051123 0.133373 -0.479721
-0.0398508 0.539861 0.105167
-0.0918326 -0.50553 0.128953
0.520365 -0.0271139 0.0971282
-0.468725 -0.0282589 0.116287
-0.0433451 0.0858286 0.465147
-0.045565 0.172439 -0.501221
-0.0599907 0.567803 0.0576901
-0.077826 -0.544389 0.0546634
0.492893 -0.11068 0.0797855
-0.494099 -0.0882376 0.110702
-0.0459629 0.133511 0.453885
-0.0497174 0.167611 -0.489354
-0.0596872 0.437048 0.0863894
-0.179114 -0.460968 0.111378
0.548456 -0.00972411 0.141827
-0.538146 -0.0416653 0.155484
-0.1069 0.197512 0.543422
-0.045413 0.149438 -0.519596
-0.0717087 0.461537 0.153619
-0.0888989 -0.476111 0.122377
0.513325 -0.118267 0.124232
-0.428076 -0.0349519 0.152365
-0.117833 0.109209 0.522054
-0.00217535 0.139165 -0.52074
-0.065463 0.503096 0.175869
-0.0288233 -0.540197 0.0693703
0.506007 -0.116024 0.0857103
-0.53199 -0.0765651 0.16688
-0.0585657 0.083367 0.534801
-0.00304873 0.141086 -0.479872
-0.063419 0.504573 0.143568
-0.1079 -0.516288 0.0905267
0.489705 -0.0841759 0.14462
-0.522852 -0.0348831 0.0860178
-0.0656624 0.165916 0.442817
-0.0510442 0.239803 -0.52747
-0.0185932 0.510511 0.123479
-0.123426 -0.590872 0.190692
0.474622 -0.0555747 0.165592
-0.514711 -0.0798059 0.131321
-0.00500156 0.0947049 0.400074
-0.0303468 0.206258 -0.470883
-0.0448888 0.525897 0.206651
-0.0560569 -0.531598 0.156864
0.47997 -0.0678444 0.139106
-0.535399 -0.143133 0.136847
-0.0161398 0.0975435 0.529055
0.00467874 0.207765 -0.528614
-0.0500705 0.479469 0.149533
-0.0637367 -0.57164 0.194635
0.521313 -0.105844 0.180105
-0.527154 -0.104248 0.204458
-0.0632044 0.172788 0.491136
-0.0353153 0.205505 -0.512945
0.014464 0.457703 0.154495
-0.0851906 -0.537214 0.11538
0.548944 -0.137377 0.184791
-0.552532 -0.0619269 0.180049
-0.00981283 0.144345 0.569667
-0.024843 0.217802 -0.554931
-0.0221787 0.579347 0.21258
-0.0379526 -0.466698 0.219806
0.575184 -0.11908 0.165493
-0.542197 -0.0869175 0.24543
-0.0615607 0.213337 0.563284
-0.0501607 0.168382 -0.484145
-0.0509236 0.473383 0.227429
-0.0389338 -0.549186 0.254987
0.432928 -0.13897 0.180511
-0.53478 -0.0334622 0.223467
-0.0469777 0.233101 0.542469
-0.0282813 0.272512 -0.502844
-0.0755444 0.52969 0.224049
-0.0348994 -0.565684 0.2063
0.479365 -0.0782533 0.249156
-0.50655 -0.072153 0.231465
-0.0392235 0.195961 0.504117
-0.0598789 0.21401 -0.464308
0.0102224 0.510872 0.270198
-0.0315524 -0.557155 0.285219
0.418879 -0.176217 0.202394
-0.511811 0.09045 0.227558
-0.115347 0.265547 0.482915
0.0240514 0.190398 -0.566518
-0.0303081 0.617254 0.222149
-0.0351917 -0.427614 0.217012
0.521895 -0.0312079 0.2023
-0.471212 0.0152172 0.173774
-0.0486335 0.198814 0.52954
-0.134182 0.294332 -0.490058
-0.0922069 0.534956 0.231886
0.0153596 -0.512041 0.247549
0.488846 -0.042415 0.235629
-0.454417 -0.0398152 0.259821
-0.111654 0.299829 0.491896
-0.158432 0.335361 -0.525215
-0.063508 0.430143 0.304261
-0.0660641 -0.527096 0.332541
0.51799 -0.0838644 0.303189
-0.532428 -0.025193 0.250011
-0.00574558 0.285543 0.519284
-0.109225 0.305923 -0.448048
-0.103878 0.5188 0.216375
-0.0273621 -0.526504 0.265994
0.450331 -0.0607927 0.276768
-0.468939 0.00962315 0.206375
0.00568965 0.273455 0.484617
-0.0603848 0.294072 -0.517819
-0.0250475 0.479848 0.28434
-0.0349228 -0.523643 0.270458
0.474876 -0.0168063 0.299103
-0.560247 -0.0133167 0.200073
-0.0617394 0.211241 0.492045
-0.0478251 0.256518 -0.536542
-0.0462912 0.535586 0.319559
-0.0806499 -0.520215 0.291052
0.572428 -0.0726775 0.251831
-0.568061 -0.0584777 0.347291
-0.0288086 0.313654 0.474524
-0.00793114 0.356175 -0.51938
0.000816204 0.555198 0.339186
-0.0666344 -0.589304 0.335368
0.510953 -0.060206 0.268172
-0.430111 -0.0558285 0.266197
-0.0152988 0.232542 0.509788
-0.0842293 0.356866 -0.500959
-0.0956382 0.487784 0.296943
-0.0648528 -0.497925 0.261789
0.507109 0.0164905 0.330025
-0.472232 -0.112209 0.338575
0.00534921 0.256239 0.562223
-0.0741218 0.330103 -0.496323
-0.100694 0.479418 0.338388
-0.0197826 -0.532383 0.293769
0.508465 -0.097828 0.295685
-0.478644 -0.0621312 0.372278
-0.0466326 0.335742 0.60863
