ply
format ascii 1.0
comment sampling resolution: 0.01
comment noise level: 0.02
comment Created by Open3D
element vertex 1711
property double x
property double y
property double z
end_header
0.200006 0.43124 0.527559
0.193556 0.414963 -0.514067
0.215849 0.485739 0.428517
0.201926 -0.463853 0.432238
0.507324 0.190768 0.445705
-0.4495 0.187346 0.451994
0.18255 0.427081 0.491169
0.179522 0.452681 -0.496473
0.198274 0.528078 0.45128
0.189853 -0.507376 0.44369
0.458277 0.203255 0.430989
-0.464969 0.174427 0.452686
0.179548 0.456302 0.488288
0.177791 0.44347 -0.5136
0.15052 0.511858 0.443236
0.18467 -0.452693 0.429086
0.510734 0.180426 0.446879
-0.493982 0.193668 0.453311
0.20944 0.457087 0.485112
0.163364 0.445124 -0.53045
0.208266 0.514495 0.437933
0.188033 -0.498853 0.439306
0.532769 0.191141 0.491999
-0.491905 0.175236 0.44269
0.171413 0.483452 0.494877
0.192222 0.501605 -0.487832
0.181505 0.492094 0.460976
0.145137 -0.526746 0.454896
0.519563 0.227643 0.463727
-0.517992 0.175103 0.473792
0.198774 0.475496 0.474759
0.191644 0.483563 -0.51988
0.177611 0.472067 0.4975
0.175001 -0.477206 0.45366
0.506708 0.143353 0.523837
-0.485553 0.179278 0.479112
0.206319 0.527223 0.489907
0.171624 0.485608 -0.509651
0.174197 0.469899 0.511674
0.205982 -0.499212 0.490961
0.510313 0.194014 0.479703
-0.517237 0.178329 0.493516
0.224706 0.492217 0.528352
0.171179 0.553014 -0.508263
0.165022 0.518621 0.487019
0.157594 -0.480306 0.541724
0.497246 0.234956 0.475962
-0.493286 0.179404 0.470207
0.215356 -0.496164 0.468361
0.179993 -0.521483 -0.481416
0.190261 0.499718 -0.484182
0.223682 -0.523112 -0.510022
0.486646 0.179445 -0.487395
-0.499321 0.194055 -0.50001
0.197968 -0.474364 0.524061
0.150189 -0.47757 -0.533449
0.205561 0.523512 -0.459272
0.219844 -0.52019 -0.471142
0.522349 0.20573 -0.501824
-0.498229 0.172113 -0.463186
0.222119 -0.492931 0.51421
0.178735 -0.484875 -0.53753
0.201075 0.51336 -0.483329
0.175263 -0.464597 -0.445634
0.503986 0.216125 -0.494067
-0.519742 0.140283 -0.480093
0.218673 -0.477439 0.505296
0.210227 -0.443172 -0.506331
0.164295 0.528578 -0.462558
0.193752 -0.509929 -0.486996
0.453754 0.163382 -0.472064
-0.48936 0.194992 -0.476309
0.162729 -0.460943 0.487979
0.193073 -0.427911 -0.505695
0.188156 0.482485 -0.485431
0.212996 -0.483371 -0.448883
0.498927 0.178142 -0.459796
-0.532151 0.18576 -0.460798
0.242391 -0.444685 0.499829
0.144194 -0.438806 -0.468575
0.181504 0.518116 -0.455137
0.216053 -0.516274 -0.449347
0.503772 0.161443 -0.455774
-0.519325 0.204208 -0.464667
0.199107 -0.47278 0.489846
0.211008 -0.455625 -0.504716
0.217745 0.511862 -0.434127
0.201304 -0.472185 -0.470343
0.506604 0.224729 -0.412118
-0.49417 0.190839 -0.384384
0.187131 -0.457166 0.478271
0.179258 -0.425261 -0.503139
0.206794 0.494825 -0.422188
0.174473 -0.484687 -0.417203
0.499388 0.183302 -0.429181
-0.45768 0.232441 -0.466084
0.197183 -0.421633 0.475973
0.198077 -0.416384 -0.498455
0.210882 0.511477 -0.411424
0.213134 -0.479769 -0.416316
0.515339 0.186774 -0.410901
-0.494741 0.189415 -0.428419
0.197328 -0.416571 0.479756
0.192976 -0.437514 -0.53548
0.193295 0.5069 -0.395836
0.21592 -0.526964 -0.416335
0.499464 0.217699 -0.427915
-0.517177 0.175422 -0.406244
0.171273 -0.384855 0.505263
0.193489 -0.406927 -0.513199
0.219518 0.508335 -0.405504
0.213049 -0.509247 -0.380034
0.472503 0.219447 -0.371612
-0.521513 0.175327 -0.40579
0.20676 -0.375342 0.459635
0.237795 -0.423291 -0.509092
0.164281 0.492031 -0.371523
0.206272 -0.468753 -0.356606
0.49416 0.219257 -0.397852
-0.481149 0.192587 -0.390614
0.185634 -0.391937 0.541553
0.197264 -0.370312 -0.456885
0.185757 0.514965 -0.432903
0.207613 -0.496218 -0.396674
0.516382 0.207802 -0.378586
-0.461345 0.219426 -0.427287
0.23711 -0.390374 0.505609
0.222355 -0.374015 -0.482081
0.222734 0.504831 -0.395783
0.176456 -0.485886 -0.370601
0.510969 0.185007 -0.36161
-0.495683 0.191294 -0.386514
0.240538 -0.359424 0.522152
0.184366 -0.354126 -0.503369
0.214957 0.556252 -0.341442
0.20831 -0.498693 -0.354426
0.484906 0.214857 -0.318315
-0.527093 0.208597 -0.386246
0.225307 -0.3065 0.506256
0.173118 -0.346671 -0.506192
0.19528 0.495851 -0.362061
0.171025 -0.486745 -0.328053
0.512116 0.201178 -0.346434
-0.508139 0.187186 -0.362824
0.198085 -0.348546 0.475284
0.171756 -0.335923 -0.518754
0.179484 0.505169 -0.367367
0.211502 -0.488711 -0.313108
0.505946 0.196824 -0.310305
-0.483704 0.187902 -0.322262
0.176685 -0.313082 0.48713
0.200848 -0.312318 -0.470515
0.188786 0.509252 -0.344507
0.213029 -0.501467 -0.302383
0.481156 0.18951 -0.360589
-0.475671 0.246042 -0.34613
0.177291 -0.312157 0.523438
0.193535 -0.32218 -0.486508
0.21741 0.512131 -0.31709
0.233029 -0.469571 -0.29974
0.487925 0.194335 -0.274074
-0.51406 0.189153 -0.329916
0.19872 -0.294734 0.501673
0.185835 -0.327265 -0.526122
0.174057 0.53089 -0.274447
0.198548 -0.524235 -0.33049
0.509325 0.193333 -0.312686
-0.520128 0.178855 -0.311982
0.195073 -0.277693 0.470857
0.233481 -0.289438 -0.541653
0.221344 0.53565 -0.346571
0.21722 -0.515825 -0.289623
0.532874 0.198097 -0.312226
-0.505807 0.201799 -0.29815
0.215659 -0.238202 0.480004
0.191235 -0.290771 -0.509526
0.18883 0.464998 -0.299706
0.19276 -0.49109 -0.26057
0.501067 0.180398 -0.303189
-0.483235 0.186153 -0.302393
0.17707 -0.279586 0.531495
0.249995 -0.29826 -0.541582
0.182865 0.52484 -0.240637
0.225395 -0.509242 -0.247614
0.514433 0.195495 -0.257003
-0.511558 0.198258 -0.272425
0.198039 -0.270351 0.502199
0.162672 -0.254927 -0.518089
0.183473 0.509078 -0.257396
0.213011 -0.45637 -0.286446
0.454923 0.20894 -0.275376
-0.51879 0.187043 -0.246906
0.184097 -0.274631 0.517094
0.224473 -0.306958 -0.500686
0.236855 0.515532 -0.271484
0.202755 -0.522709 -0.249677
0.476038 0.191658 -0.229212
-0.480644 0.171988 -0.23275
0.22225 -0.253536 0.530856
0.204365 -0.256986 -0.4897
0.190927 0.511172 -0.232528
0.18816 -0.494823 -0.279756
0.473493 0.179124 -0.252622
-0.528948 0.17023 -0.249015
0.196598 -0.229667 0.495589
0.196361 -0.292353 -0.515888
0.175927 0.488206 -0.247902
0.18998 -0.53017 -0.235635
0.506777 0.186107 -0.221436
-0.489763 0.18705 -0.256094
0.195656 -0.190191 0.502856
0.208538 -0.201777 -0.484594
0.180263 0.506683 -0.228941
0.15476 -0.506302 -0.242526
0.486825 0.188025 -0.219087
-0.5099 0.207178 -0.248061
0.216067 -0.200268 0.548417
0.189448 -0.223146 -0.491245
0.186208 0.473052 -0.248927
0.179895 -0.504523 -0.226063
0.527714 0.159688 -0.242425
-0.475628 0.196811 -0.19346
0.171362 -0.219687 0.516674
0.192002 -0.239741 -0.533555
0.213496 0.506522 -0.238965
0.190053 -0.518803 -0.222792
0.525393 0.206064 -0.221384
-0.461486 0.204522 -0.225061
0.190049 -0.220037 0.492291
0.202567 -0.210075 -0.478174
0.181622 0.498543 -0.199922
0.187156 -0.488444 -0.169635
0.529633 0.188546 -0.16127
-0.473838 0.201498 -0.205474
0.225346 -0.197838 0.48644
0.184819 -0.222713 -0.510745
0.121477 0.505373 -0.159978
0.230774 -0.47402 -0.20135
0.515195 0.189026 -0.195228
-0.537804 0.166539 -0.173398
0.201522 -0.173201 0.526354
0.202204 -0.152266 -0.510829
0.218134 0.50741 -0.200529
0.224231 -0.509471 -0.160664
0.514023 0.192628 -0.151925
-0.499739 0.189002 -0.175068
0.210144 -0.144636 0.496015
0.200383 -0.154698 -0.473433
0.190372 0.487522 -0.161019
0.212392 -0.53157 -0.14161
0.516189 0.191936 -0.174486
-0.509037 0.226457 -0.178921
0.200871 -0.153083 0.480328
0.184547 -0.149608 -0.468994
0.193533 0.509299 -0.132181
0.18475 -0.470782 -0.158811
0.541273 0.212845 -0.190135
-0.509271 0.207085 -0.17506
0.190859 -0.133446 0.49673
0.188727 -0.12739 -0.488853
0.188958 0.508138 -0.143137
0.221569 -0.516659 -0.139491
0.502088 0.206728 -0.150668
-0.50642 0.233558 -0.138494
0.1916 -0.146096 0.510774
0.175358 -0.140263 -0.50075
0.246195 0.471999 -0.114368
0.20644 -0.496516 -0.139904
0.512684 0.191202 -0.177505
-0.504953 0.156797 -0.146178
0.164557 -0.168187 0.487937
0.170442 -0.0964108 -0.480338
0.230234 0.476997 -0.120576
0.202932 -0.472691 -0.122926
0.525911 0.167216 -0.129439
-0.497216 0.175159 -0.128437
0.206571 -0.133144 0.48914
0.204331 -0.122618 -0.477764
0.192931 0.524228 -0.0955432
0.196669 -0.491283 -0.100393
0.509403 0.254602 -0.11862
-0.5359 0.189103 -0.0890281
0.191101 -0.13376 0.491716
0.224373 -0.0925283 -0.504493
0.204263 0.481553 -0.126565
0.180182 -0.513342 -0.127302
0.536084 0.195911 -0.0930882
-0.496683 0.148023 -0.0776486
0.183919 -0.10723 0.530438
0.176251 -0.0944885 -0.491995
0.202554 0.520929 -0.0836792
0.210024 -0.502362 -0.0972711
0.460055 0.169708 -0.122057
-0.524979 0.211949 -0.101903
0.186602 -0.0816554 0.531015
0.212731 -0.0767598 -0.484136
0.192921 0.485655 -0.0677148
0.208662 -0.508531 -0.115449
0.49423 0.176981 -0.0918929
-0.499268 0.178705 -0.06295
0.188896 -0.0824183 0.477645
0.197281 -0.0708208 -0.510988
0.216746 0.498458 -0.0502363
0.224953 -0.504396 -0.0798368
0.482763 0.23431 -0.0850561
-0.500243 0.181351 -0.111335
0.197458 -0.0995444 0.540054
0.192812 -0.0702023 -0.514972
0.20493 0.480829 -0.0449907
0.171877 -0.470181 -0.0417653
0.508212 0.186216 -0.0888606
-0.540805 0.223983 -0.0777521
0.204214 -0.0711098 0.471529
0.208621 -0.044209 -0.470231
0.191449 0.520661 -0.0384038
0.209408 -0.53537 -0.0453972
0.500506 0.181749 -0.0652472
-0.484707 0.186463 -0.087881
0.220756 -0.0472308 0.473998
0.201649 -0.0511483 -0.504121
0.202347 0.539838 -0.0443132
0.196829 -0.516503 -0.0820709
0.471299 0.226452 -0.0777012
-0.519239 0.191663 -0.0218332
0.176069 -0.0371411 0.506159
0.160456 -0.0574723 -0.506678
0.200354 0.49758 -0.0474428
0.17488 -0.521736 -0.0498232
0.512353 0.186813 -0.0463912
-0.492555 0.203817 -0.00574539
0.210414 -0.00343275 0.504476
0.192564 -0.0278226 -0.531191
0.143653 0.520322 -0.0343837
0.165706 -0.533078 -0.0340822
0.493353 0.18565 -0.03125
-0.476543 0.165094 -0.0249728
0.188053 -0.0234011 0.516855
0.207599 0.0128743 -0.497589
0.187638 0.50255 -0.00617584
0.216431 -0.522067 -0.0210775
0.500044 0.192978 -0.0214589
-0.5108 0.188488 -0.0201255
0.233633 -0.0101995 0.520449
0.148422 -8.81491e-05 -0.469374
0.16553 0.469179 -0.00197697
0.194651 -0.499733 -0.0159324
0.474649 0.172027 -0.0169787
-0.501243 0.198196 -0.0163033
0.190819 0.00095634 0.514031
0.218521 0.049572 -0.485541
0.207635 0.53101 0.0242373
0.16839 -0.514565 0.000740365
0.503321 0.196669 0.0194437
-0.494068 0.203304 -0.00786936
0.194469 -0.0137091 0.487159
0.171373 -0.0137453 -0.514342
0.181312 0.512802 -0.0126051
0.214799 -0.508868 -4.73947e-05
0.522116 0.16619 0.033268
-0.489372 0.177865 0.0287001
0.22443 -0.0166756 0.51174
0.204757 0.0443338 -0.490368
0.191565 0.497426 0.00501308
0.218735 -0.52074 0.0389699
0.487921 0.211007 0.00209703
-0.478069 0.204378 0.021426
0.181559 0.0283315 0.502885
0.185149 0.0447103 -0.480912
0.179296 0.506729 0.0468123
0.17368 -0.527294 0.0259899
0.505026 0.252164 0.049898
-0.473561 0.200063 0.0485771
0.202874 0.0312567 0.493602
0.164077 0.0123354 -0.510525
0.193374 0.51936 0.0675525
0.174515 -0.521972 0.0248198
0.48182 0.223164 0.0734697
-0.488268 0.198757 0.0448107
0.200739 0.086391 0.511645
0.218076 0.0583259 -0.467863
0.176248 0.511893 0.0663298
0.193425 -0.506657 0.0507451
0.463705 0.179543 0.0687309
-0.512018 0.206191 0.0569352
0.232231 0.0536692 0.497715
0.18168 0.0574739 -0.497846
0.210262 0.489264 0.0562183
0.219275 -0.506549 0.105105
0.478581 0.209641 0.0483496
-0.530207 0.211579 0.0649422
0.199721 0.0383449 0.479888
0.191559 0.0605882 -0.482248
0.185902 0.519475 0.0564781
0.205327 -0.48979 0.0485832
0.500518 0.222423 0.0985402
-0.481318 0.213152 0.107729
0.19426 0.0596786 0.443949
0.210536 0.0871286 -0.510968
0.190756 0.535409 0.112833
0.198905 -0.507035 0.0738461
0.48418 0.199529 0.0665392
-0.51861 0.21539 0.078794
0.176531 0.0630511 0.497899
0.174081 0.114613 -0.506144
0.199837 0.485469 0.0589107
0.226855 -0.484096 0.103355
0.512497 0.182831 0.0303334
-0.497457 0.192289 0.115028
0.185899 0.0948042 0.505785
0.167365 0.110188 -0.488838
0.205827 0.498313 0.133466
0.206434 -0.505058 0.0930509
0.502225 0.218878 0.0994697
-0.468473 0.225126 0.125366
0.176918 0.131934 0.511846
0.194189 0.115933 -0.461241
0.221225 0.487914 0.0927417
0.166705 -0.533792 0.0929846
0.533437 0.243431 0.136332
-0.525934 0.209569 0.128841
0.224786 0.135635 0.484182
0.191906 0.134376 -0.448247
0.207914 0.539867 0.100574
0.224474 -0.494254 0.10536
0.480544 0.19906 0.106389
-0.465589 0.172614 0.0882417
0.178509 0.160286 0.502326
0.172439 0.123996 -0.484478
0.225852 0.505081 0.128225
0.17351 -0.492173 0.156905
0.541238 0.240743 0.144004
-0.482351 0.211932 0.156807
0.193594 0.178098 0.503883
0.222089 0.156598 -0.487573
0.206822 0.516483 0.119674
0.181416 -0.474508 0.15406
0.482129 0.224044 0.144358
-0.487313 0.206032 0.127676
0.22477 0.149436 0.490222
0.188763 0.132775 -0.492702
0.168332 0.46689 0.15113
0.233321 -0.47773 0.144983
0.48902 0.203157 0.183025
-0.489561 0.197099 0.139486
0.190107 0.199258 0.480929
0.185824 0.139091 -0.486688
0.189794 0.464089 0.158584
0.176166 -0.48258 0.150865
0.540382 0.235716 0.205031
-0.52546 0.196011 0.149777
0.232426 0.183559 0.514796
0.201924 0.168718 -0.490843
0.188243 0.493581 0.205276
0.213347 -0.464277 0.150226
0.496486 0.173566 0.18432
-0.501569 0.216823 0.173866
0.204907 0.171732 0.492245
0.174283 0.193048 -0.522078
0.195145 0.509882 0.156319
0.179284 -0.508552 0.188278
0.490021 0.197524 0.201335
-0.520447 0.196015 0.19676
0.205671 0.189563 0.502113
0.190758 0.198052 -0.519608
0.148035 0.493446 0.21426
0.19178 -0.48587 0.162034
0.504127 0.237439 0.165121
-0.501692 0.170675 0.178914
0.182212 0.166179 0.463359
0.162959 0.207499 -0.489783
0.220336 0.488846 0.166081
0.210068 -0.559191 0.201988
0.499794 0.179694 0.177679
-0.45859 0.156368 0.171885
0.223946 0.229639 0.47408
0.181708 0.211854 -0.495152
0.216769 0.517003 0.225762
0.227031 -0.4665 0.186896
0.461203 0.181735 0.229657
-0.493447 0.15568 0.225087
0.202859 0.249656 0.471469
0.17927 0.231365 -0.497265
0.200382 0.500986 0.205934
0.210471 -0.53022 0.260634
0.504259 0.213833 0.212266
-0.497771 0.195228 0.225738
0.212134 0.242289 0.505551
0.211411 0.266111 -0.50287
0.214094 0.496711 0.18425
0.171759 -0.461948 0.216947
0.492883 0.204538 0.220603
-0.498835 0.217404 0.230259
0.204323 0.216516 0.522732
0.204622 0.236378 -0.46392
0.166615 0.511427 0.194049
0.202615 -0.486704 0.266551
0.508467 0.18108 0.238425
-0.501026 0.181743 0.256341
0.232151 0.247805 0.521058
0.208648 0.279718 -0.509401
0.196963 0.464188 0.268607
0.217993 -0.500343 0.256709
0.495295 0.203465 0.252396
-0.500955 0.180814 0.267125
0.206683 0.292248 0.490401
0.206311 0.224022 -0.478708
0.207723 0.476157 0.252516
0.185369 -0.483898 0.279712
0.476161 0.189545 0.236614
-0.515322 0.16486 0.280326
0.201509 0.254123 0.475565
0.245976 0.287018 -0.491316
0.187111 0.52518 0.310539
0.221027 -0.517863 0.25951
0.510685 0.166316 0.271108
-0.484241 0.179724 0.251778
0.186665 0.286162 0.504279
0.19702 0.30805 -0.520865
0.226729 0.49177 0.300487
0.209338 -0.4814 0.294808
0.49694 0.19016 0.279391
-0.500423 0.222391 0.28247
0.182238 0.283508 0.479809
0.170922 0.296784 -0.491996
0.214022 0.487225 0.292317
0.191509 -0.48002 0.278009
0.51361 0.202103 0.29329
-0.523529 0.210286 0.264582
0.157318 0.294735 0.517527
0.198194 0.291448 -0.51381
0.175684 0.465457 0.357937
0.200565 -0.504461 0.308775
0.494472 0.168907 0.330094
-0.474705 0.175988 0.325778
0.213425 0.298965 0.538769
0.200085 0.300432 -0.512114
0.159784 0.500353 0.35846
0.191842 -0.504341 0.334945
0.491979 0.180821 0.304126
-0.501272 0.226066 0.297365
0.211538 0.308474 0.55374
0.18506 0.302665 -0.508896
0.22372 0.508288 0.331486
0.199935 -0.501449 0.328816
0.488643 0.229943 0.358259
-0.508645 0.205467 0.327935
0.189762 0.335873 0.504583
0.21395 0.297752 -0.479072
0.21074 0.507321 0.346895
0.206667 -0.497266 0.34513
0.495679 0.192549 0.331747
-0.519747 0.175716 0.34337
0.224175 0.344816 0.445244
0.196848 0.317204 -0.489144
0.181642 0.489534 0.330443
0.23247 -0.511462 0.355311
0.505746 0.206092 0.329783
-0.519418 0.200458 0.311061
0.215383 0.327441 0.523069
0.191451 0.367671 -0.519929
0.150995 0.49278 0.339623
0.203625 -0.487634 0.335877
0.524256 0.165257 0.345952
-0.560134 0.194838 0.346405
0.172497 0.390942 0.499833
0.250219 0.353938 -0.484112
0.180766 0.510832 0.37887
0.200829 -0.512219 0.348697
0.527506 0.224484 0.368774
-0.522328 0.216873 0.423607
0.221359 0.393178 0.495849
0.190717 0.373293 -0.523709
0.162327 0.496775 0.387542
0.181139 -0.515835 0.400225
0.514071 0.216108 0.422505
-0.514268 0.191121 0.382414
0.185997 0.399881 0.516571
0.218463 0.406509 -0.50814
0.186564 0.524496 0.369504
0.213045 -0.523993 0.368418
0.523549 0.203752 0.407978
-0.500872 0.199478 0.39941
0.158073 0.411861 0.495152
0.200544 0.44484 -0.528941
0.175328 0.47138 0.407055
0.170602 -0.521147 0.391696
0.508912 0.201168 0.383845
-0.466505 0.203936 0.383173
0.211381 0.422574 0.487313
0.211875 0.399606 -0.495133
0.231428 0.494104 0.392557
0.169391 -0.52946 0.397464
0.482424 0.196572 0.399252
-0.520379 0.208235 0.440464
0.184677 0.40457 0.487331
0.183536 0.43181 -0.463159
0.170207 0.49359 0.411486
0.231357 -0.469607 0.410392
0.477724 0.17325 0.45235
-0.484656 0.21734 0.406167
0.162783 0.405237 0.499583
0.211438 0.428993 -0.470898
0.185383 0.522604 0.432566
0.223308 -0.517847 0.373855
0.488599 0.181739 0.438688
-0.500617 0.233844 0.4419
0.193707 0.430557 0.463298
0.193293 0.428262 -0.486256
0.193779 0.478416 0.435693
0.206046 -0.509334 0.422173
0.504721 0.179339 0.455219
-0.480136 0.15461 0.444248
0.176151 0.462814 0.472837
0.181902 0.44393 -0.492023
0.191039 0.510687 0.435935
0.188516 -0.510391 0.470873
0.514522 0.221914 0.437495
-0.503295 0.244305 0.445275
0.178401 0.470303 0.491667
0.175265 0.463523 -0.487347
0.225962 0.507648 0.435335
0.197591 -0.489583 0.435267
0.501367 0.226911 0.474218
-0.482193 0.203017 0.461592
0.176803 0.501063 0.508622
0.20224 0.479684 -0.508608
0.223013 0.514786 0.466185
0.218977 -0.50002 0.432496
0.493607 0.1923 0.470973
-0.55948 0.217502 0.453176
0.216657 0.504998 0.491224
0.220652 0.506189 -0.502883
0.218034 0.482037 0.45845
0.206038 -0.470888 0.473939
0.484048 0.193593 0.489953
-0.47662 0.207728 0.448579
0.197984 0.483015 0.499257
0.188571 0.483272 -0.487305
0.1804 0.494867 0.53276
0.177684 -0.501781 0.481595
0.481898 0.173095 0.514928
-0.539853 0.206708 0.500318
0.170643 0.523942 0.49362
0.195861 0.479417 -0.482139
0.197288 0.490543 0.478876
0.21863 -0.520047 0.531518
0.507694 0.20867 0.539528
-0.498249 0.221496 0.498491
0.223416 -0.480518 0.534879
0.217942 -0.501367 -0.483216
0.196724 0.533913 -0.484204
0.198161 -0.470184 -0.51297
0.494025 0.204732 -0.491249
-0.489574 0.233924 -0.50192
0.20794 -0.494552 0.490038
0.216291 -0.544036 -0.489219
0.221713 0.498363 -0.46051
0.204232 -0.496389 -0.487159
0.516575 0.21907 -0.481248
-0.503265 0.178519 -0.490967
0.226239 -0.47322 0.496807
0.214405 -0.476978 -0.512347
0.236372 0.527345 -0.495779
0.209456 -0.507312 -0.500592
0.489491 0.17797 -0.489762
-0.51851 0.232297 -0.48412
0.236409 -0.48129 0.495633
0.196411 -0.480095 -0.487182
0.204888 0.466967 -0.449121
0.222978 -0.492707 -0.441969
0.533736 0.1994 -0.470233
-0.499613 0.225447 -0.45276
0.15075 -0.471992 0.513627
0.217304 -0.465169 -0.512865
0.205139 0.535929 -0.470225
0.204906 -0.489834 -0.453921
0.497853 0.206971 -0.476206
-0.46376 0.242377 -0.474544
0.240993 -0.444147 0.478338
0.19327 -0.48467 -0.530603
0.219871 0.495174 -0.429507
0.239696 -0.513607 -0.440461
0.466731 0.208917 -0.450798
-0.523888 0.231167 -0.423453
0.188067 -0.413282 0.50402
0.21265 -0.430558 -0.507156
0.246359 0.494353 -0.433551
0.209225 -0.486139 -0.451131
0.524581 0.22317 -0.400312
-0.50288 0.223101 -0.437137
0.236812 -0.427994 0.477881
0.162601 -0.431517 -0.468348
0.184443 0.521239 -0.454273
0.21382 -0.488813 -0.454959
0.53104 0.215137 -0.410791
-0.531425 0.184605 -0.424914
0.208272 -0.425688 0.52311
0.224344 -0.410357 -0.528645
0.206286 0.516387 -0.434266
0.23978 -0.525719 -0.419564
0.555014 0.222118 -0.439486
-0.497069 0.210614 -0.392842
0.223104 -0.439132 0.508903
0.191872 -0.398516 -0.508741
0.226655 0.507532 -0.400028
0.19838 -0.494629 -0.405144
0.507195 0.233674 -0.417395
-0.493544 0.221346 -0.406648
0.228971 -0.424922 0.476675
0.197453 -0.388198 -0.536621
0.165451 0.504066 -0.43201
0.213914 -0.478728 -0.384184
0.542311 0.213787 -0.401456
-0.496077 0.189997 -0.369801
0.206576 -0.367679 0.473968
0.193917 -0.379536 -0.491911
0.216552 0.508179 -0.388181
0.228954 -0.528485 -0.363748
0.484486 0.218437 -0.374542
-0.486216 0.209937 -0.402205
0.196062 -0.384059 0.510299
0.199285 -0.334813 -0.477221
0.196447 0.50039 -0.3792
0.205922 -0.485801 -0.381179
0.501202 0.195575 -0.402641
-0.500132 0.224228 -0.352357
0.212001 -0.368589 0.474444
0.225938 -0.350775 -0.47535
0.224774 0.495572 -0.402996
0.238106 -0.4944 -0.366556
0.498015 0.210688 -0.363689
-0.48862 0.179974 -0.354232
0.210619 -0.330339 0.464014
0.203871 -0.360828 -0.506032
0.193797 0.496345 -0.298282
0.199033 -0.480458 -0.375434
0.506763 0.238989 -0.362817
-0.511962 0.225404 -0.362142
0.20666 -0.335166 0.478321
0.213048 -0.36395 -0.486187
0.24102 0.485178 -0.362705
0.207218 -0.528198 -0.338595
0.492603 0.198917 -0.356657
-0.487178 0.2586 -0.344947
0.207695 -0.308786 0.501427
0.222673 -0.335767 -0.515501
0.200756 0.5095 -0.336179
0.185571 -0.531617 -0.339797
0.480745 0.227008 -0.356043
-0.516367 0.23757 -0.333894
0.147074 -0.317866 0.49034
0.222617 -0.314727 -0.513871
0.181917 0.491781 -0.307401
0.20258 -0.518377 -0.292798
0.44994 0.175623 -0.321258
-0.477899 0.198078 -0.34123
0.197796 -0.303791 0.512015
0.214249 -0.318215 -0.473055
0.218075 0.536645 -0.363653
0.182631 -0.488134 -0.32694
0.478298 0.226952 -0.316647
-0.516016 0.190385 -0.310263
0.204799 -0.30061 0.462642
0.181303 -0.284687 -0.468152
0.230799 0.494444 -0.246325
0.210915 -0.488807 -0.322511
0.514691 0.235015 -0.301188
-0.514316 0.198849 -0.307287
0.215124 -0.312482 0.502102
0.211646 -0.289593 -0.494731
0.188984 0.532058 -0.279853
0.236436 -0.475437 -0.333675
0.524192 0.210665 -0.275276
-0.507508 0.244463 -0.325136
0.193456 -0.278397 0.487285
0.216942 -0.285324 -0.46258
0.23742 0.512297 -0.291453
0.211118 -0.472886 -0.283969
0.512426 0.246833 -0.286882
-0.498002 0.168947 -0.287516
0.20059 -0.257941 0.460851
0.181439 -0.283462 -0.512571
0.198824 0.527309 -0.250376
0.180115 -0.491604 -0.297624
0.501864 0.216194 -0.312807
-0.495201 0.223627 -0.278181
0.197444 -0.236 0.507163
0.229342 -0.263853 -0.511954
0.210847 0.480075 -0.277523
0.20154 -0.513835 -0.263146
0.494505 0.217679 -0.257061
-0.457301 0.205231 -0.256663
0.233986 -0.22712 0.486492
0.179224 -0.225231 -0.51536
0.217347 0.513281 -0.228237
0.19009 -0.495109 -0.256509
0.490352 0.222001 -0.245153
-0.535607 0.213141 -0.252421
0.213046 -0.216777 0.519848
0.235261 -0.234473 -0.499242
0.237245 0.501791 -0.231454
0.2217 -0.474983 -0.199609
0.521871 0.186335 -0.211785
-0.483058 0.206019 -0.246536
0.196406 -0.199258 0.498307
0.219631 -0.21835 -0.470921
0.193535 0.477385 -0.253075
0.21283 -0.495082 -0.241663
0.47002 0.188566 -0.265588
-0.518107 0.229174 -0.219984
0.189732 -0.198209 0.496232
0.218365 -0.230655 -0.518758
0.22617 0.475878 -0.211787
0.206792 -0.487143 -0.226503
0.527251 0.197049 -0.23159
-0.482538 0.216023 -0.246642
0.224375 -0.224428 0.486405
0.201313 -0.209248 -0.511987
0.185837 0.477145 -0.201277
0.173828 -0.444076 -0.237726
0.49536 0.209052 -0.242896
-0.496592 0.217454 -0.227982
0.206773 -0.180888 0.47988
0.201054 -0.182845 -0.499233
0.171081 0.47678 -0.191473
0.23 -0.471274 -0.181049
0.493157 0.206606 -0.225336
-0.508693 0.195855 -0.183646
0.191121 -0.182169 0.509634
0.241047 -0.179889 -0.488806
0.238497 0.492484 -0.209616
0.180085 -0.492604 -0.198137
0.540513 0.247812 -0.170606
-0.48728 0.209583 -0.198723
0.173767 -0.186856 0.483744
0.205414 -0.167346 -0.506879
0.194638 0.501256 -0.166642
0.216877 -0.485435 -0.200687
0.491742 0.164376 -0.191102
-0.49314 0.231092 -0.199679
0.198575 -0.176181 0.525294
0.246071 -0.150226 -0.506911
0.200636 0.483345 -0.161929
0.164937 -0.510268 -0.153801
0.500203 0.21637 -0.133651
-0.514228 0.176683 -0.185608
0.217863 -0.159951 0.529533
0.170433 -0.151292 -0.491045
0.246117 0.500746 -0.17329
0.212055 -0.483895 -0.180249
0.513459 0.23702 -0.159313
-0.498601 0.193145 -0.182266
0.214719 -0.15101 0.465213
0.201024 -0.158265 -0.508921
0.198855 0.531366 -0.180594
0.208372 -0.480283 -0.181107
0.502399 0.207187 -0.173961
-0.550195 0.211589 -0.116634
0.21775 -0.155406 0.499733
0.21281 -0.147757 -0.491741
0.208512 0.535302 -0.13346
0.219513 -0.526199 -0.19437
0.484561 0.204088 -0.135861
-0.470088 0.25705 -0.119854
0.260023 -0.142084 0.503677
0.216746 -0.145791 -0.508629
0.201417 0.496808 -0.141191
0.204854 -0.48823 -0.153526
0.494939 0.186887 -0.138758
-0.495748 0.197875 -0.106455
0.191805 -0.133195 0.502581
0.207439 -0.118804 -0.492371
0.219146 0.500819 -0.158281
0.201152 -0.501837 -0.150766
0.489217 0.215987 -0.128473
-0.489157 0.198998 -0.122738
0.215723 -0.12254 0.510971
0.191538 -0.12403 -0.52147
0.189504 0.479141 -0.11252
0.229259 -0.49848 -0.145242
0.437386 0.234101 -0.0977476
-0.516508 0.219183 -0.120307
0.230874 -0.0949781 0.499858
0.213876 -0.0707506 -0.487921
0.217188 0.519121 -0.131193
0.193263 -0.522012 -0.106293
0.521273 0.232216 -0.0858754
-0.490537 0.214574 -0.0872281
0.20758 -0.104817 0.506514
0.226138 -0.100032 -0.484671
0.193001 0.518762 -0.0850262
0.195736 -0.511923 -0.082899
0.495123 0.182003 -0.0590212
-0.496802 0.210051 -0.0926287
0.191177 -0.0935135 0.492434
0.201544 -0.121116 -0.522843
0.157186 0.496273 -0.0854501
0.229733 -0.521316 -0.0667281
0.477602 0.188877 -0.0647676
-0.491214 0.200798 -0.0996984
0.209397 -0.0446858 0.494564
0.177703 -0.0987792 -0.490234
0.181267 0.538964 -0.0783236
0.187195 -0.539702 -0.0245501
0.510926 0.213931 -0.0836112
-0.517849 0.215571 -0.0640127
0.206149 -0.0578047 0.489605
0.207193 -0.0595418 -0.510461
0.166016 0.495513 -0.0668243
0.198516 -0.490064 -0.0573144
0.477103 0.172188 -0.069008
-0.521816 0.224277 -0.0252998
0.191267 -0.055143 0.525976
0.19337 -0.0332194 -0.515063
0.209333 0.495729 -0.0379153
0.226202 -0.499168 -0.0675945
0.544923 0.176638 -0.0499518
-0.480029 0.187827 -0.049224
0.20943 -0.0319733 0.502353
0.192059 -0.00839535 -0.48636
0.194708 0.516476 -0.0214556
0.214372 -0.500528 -0.0369795
0.492976 0.214264 -0.0733571
-0.520541 0.195354 -0.0386804
0.21558 -0.0148323 0.479573
0.189446 -0.0100438 -0.512905
0.18092 0.52171 -0.0380777
0.205297 -0.501899 0.0181912
0.489712 0.225356 -0.0193743
-0.543824 0.204884 -0.0376375
0.209796 -0.0350677 0.499257
0.189527 -0.0577779 -0.493053
0.212325 0.500453 -0.0015342
0.231689 -0.511705 -0.0203029
0.48626 0.199253 -0.0400274
-0.482313 0.204789 -0.0522955
0.195857 -0.0475183 0.497484
0.221692 -0.0415643 -0.495622
0.211485 0.500083 0.0121018
0.21777 -0.504346 -0.0280034
0.48797 0.215024 -0.0108745
-0.513427 0.246686 0.00627036
0.186123 0.023728 0.496408
0.216508 0.00257529 -0.502407
0.209422 0.509251 0.0219057
0.186999 -0.495807 0.00216642
0.515547 0.192273 -0.0412936
-0.512391 0.193524 0.0079208
0.220353 0.0416611 0.491359
0.186441 0.00524256 -0.502566
0.199641 0.514587 0.00383419
0.218775 -0.502482 -0.0115147
0.489577 0.197028 -0.0206575
-0.501879 0.21898 0.0156969
0.235714 0.000165075 0.499168
0.191953 0.00398589 -0.506174
0.218936 0.501607 0.00965614
0.213294 -0.486308 0.0112519
0.507674 0.193285 0.0126245
-0.489417 0.190978 0.0068179
0.18866 0.0468681 0.513119
0.236451 0.0440141 -0.503996
0.203528 0.518625 0.0203247
0.173845 -0.522469 0.0496285
0.500776 0.170976 0.0505667
-0.522804 0.186526 -0.0200175
0.205704 0.0454253 0.539151
0.206686 0.0638017 -0.500211
0.197213 0.474699 0.0439242
0.232705 -0.540695 0.0152976
0.521569 0.2017 0.0352964
-0.516592 0.216631 0.0230721
0.174993 0.0278405 0.55047
0.197865 0.0764405 -0.502329
0.196154 0.492557 0.0775802
0.194709 -0.486634 0.0546879
0.52333 0.238769 0.0428078
-0.490028 0.199433 0.0078448
0.206848 0.0805852 0.497625
0.216086 0.0486514 -0.487505
0.189197 0.484917 0.0383508
0.213036 -0.509328 0.0238509
0.536191 0.20889 0.0422016
-0.491554 0.221943 0.0533316
0.183697 0.0809065 0.475854
0.220492 0.0471413 -0.498693
0.233667 0.518878 0.11511
0.212626 -0.496858 0.0622221
0.514366 0.247606 0.100166
-0.526507 0.216285 0.0212324
0.15051 0.105967 0.496545
0.233063 0.0656242 -0.512518
0.187153 0.495714 0.0860795
0.195759 -0.524235 0.0655271
0.512862 0.234476 0.0737098
-0.518532 0.201355 0.0871773
0.203153 0.109314 0.477212
0.251532 0.0742058 -0.480367
0.184618 0.508053 0.0990805
0.17534 -0.504531 0.0724738
0.500448 0.192698 0.093027
-0.500328 0.180871 0.087308
0.20738 0.113964 0.484893
0.216231 0.114507 -0.490176
0.240028 0.518447 0.102564
0.20504 -0.520253 0.0655768
0.489728 0.215207 0.076263
-0.506966 0.214936 0.137767
0.209273 0.0996219 0.487926
0.238617 0.0806188 -0.492517
0.213339 0.492205 0.110761
0.188463 -0.497764 0.117092
0.508235 0.204908 0.105664
-0.492876 0.156042 0.111461
0.214578 0.115891 0.523299
0.24942 0.118194 -0.515367
0.24659 0.462591 0.150938
0.215104 -0.463481 0.0871687
0.507393 0.2025 0.0939726
-0.484777 0.207058 0.109641
0.19949 0.139057 0.504464
0.188184 0.141877 -0.500267
0.197935 0.465469 0.148685
0.194791 -0.514451 0.135425
0.468694 0.18253 0.152615
-0.516442 0.221397 0.119199
0.208489 0.142101 0.501472
0.199703 0.140629 -0.524307
0.222387 0.478203 0.17703
0.201705 -0.478806 0.138019
0.464806 0.251188 0.153426
-0.496427 0.206745 0.160145
0.216868 0.157165 0.480141
0.243981 0.141881 -0.515279
0.181592 0.502495 0.122351
0.193542 -0.49715 0.186528
0.484889 0.197724 0.166538
-0.501861 0.19899 0.170744
0.191555 0.153962 0.493711
0.191902 0.146534 -0.486437
0.184932 0.488994 0.121122
0.190601 -0.492309 0.170796
0.462607 0.19643 0.169869
-0.518159 0.246273 0.14604
0.215986 0.148438 0.494119
0.195107 0.168083 -0.506401
0.212142 0.447711 0.17137
0.21083 -0.504496 0.152611
0.479558 0.181278 0.177802
-0.495983 0.226233 0.166291
0.231949 0.179071 0.519561
0.223231 0.189996 -0.483691
0.23383 0.504228 0.161464
0.245546 -0.48497 0.169437
0.515185 0.202267 0.189178
-0.493693 0.220634 0.193134
0.216737 0.181255 0.525355
0.227471 0.197862 -0.532719
0.223028 0.519058 0.172761
0.223147 -0.532811 0.142607
0.508759 0.228267 0.19577
-0.495219 0.216969 0.223592
0.224296 0.211233 0.501029
0.183636 0.185105 -0.493176
0.193917 0.486408 0.19319
0.203605 -0.517091 0.231172
0.550883 0.20194 0.210431
-0.515193 0.156697 0.183417
0.234943 0.214326 0.500328
0.20775 0.19984 -0.537415
0.189093 0.505664 0.208449
0.203736 -0.531031 0.205333
0.518448 0.207467 0.212434
-0.487981 0.201159 0.234842
0.228547 0.195593 0.531425
0.202954 0.216972 -0.520888
0.224422 0.519001 0.230047
0.242438 -0.518808 0.204687
0.508077 0.180174 0.209825
-0.466907 0.209376 0.193656
0.198109 0.249163 0.525178
0.225896 0.239731 -0.51373
0.250656 0.476512 0.227081
0.214497 -0.526979 0.219738
0.477722 0.166288 0.20657
-0.525331 0.191427 0.238665
0.22717 0.257134 0.52254
0.210406 0.235695 -0.501046
0.189434 0.512786 0.234094
0.186893 -0.531596 0.220838
0.501933 0.231447 0.227171
-0.466838 0.212057 0.223622
0.226969 0.261481 0.510497
0.183954 0.257796 -0.462844
0.200724 0.514273 0.272727
0.219335 -0.530083 0.232901
0.493898 0.218722 0.256109
-0.493613 0.195767 0.224676
0.217312 0.25907 0.512982
0.231355 0.295591 -0.513106
0.200486 0.493356 0.270413
0.188537 -0.540487 0.299197
0.468908 0.239126 0.290171
-0.476588 0.217398 0.2738
0.242497 0.24018 0.471019
0.224954 0.289687 -0.497539
0.178029 0.480175 0.271775
0.242468 -0.491463 0.262732
0.507017 0.190726 0.261149
-0.502109 0.194792 0.271353
0.206254 0.292807 0.490184
0.19716 0.281073 -0.482622
0.228236 0.499555 0.293795
0.189669 -0.494487 0.293749
0.478997 0.220308 0.269207
-0.513088 0.174368 0.286943
0.213462 0.273676 0.497605
0.201293 0.261967 -0.491827
0.223284 0.50086 0.313788
0.209121 -0.502455 0.286686
0.503832 0.191022 0.304692
-0.515013 0.2079 0.280755
0.175644 0.327209 0.505467
0.216177 0.314535 -0.448746
0.195449 0.513891 0.292043
0.218537 -0.498947 0.317488
0.51773 0.229393 0.306822
-0.526505 0.227316 0.328568
0.191523 0.315754 0.465289
0.227062 0.301703 -0.500616
0.224475 0.518386 0.29003
0.197153 -0.498681 0.293296
0.506835 0.186385 0.321725
-0.492448 0.207745 0.285143
0.212299 0.321507 0.497986
0.224645 0.327004 -0.493658
0.236998 0.470162 0.311396
0.175437 -0.496923 0.294573
0.515226 0.209922 0.344623
-0.505231 0.251542 0.307338
0.200613 0.329601 0.499268
0.225568 0.342175 -0.495574
0.221921 0.534369 0.305109
0.194845 -0.490308 0.346287
0.509924 0.230499 0.311949
-0.505724 0.192532 0.3401
0.240236 0.319115 0.496853
0.227196 0.333427 -0.500863
0.238049 0.496658 0.34484
0.205542 -0.507241 0.345152
0.481824 0.193534 0.360617
-0.494965 0.194708 0.335001
0.241406 0.343929 0.492233
0.19501 0.335354 -0.501935
0.231187 0.483927 0.329238
0.233832 -0.535194 0.341646
0.469951 0.198776 0.370189
-0.529003 0.246646 0.348657
0.237835 0.340424 0.475638
0.212163 0.390309 -0.526027
0.18071 0.458658 0.393814
0.184828 -0.507605 0.344489
0.553583 0.203398 0.355617
-0.541515 0.219104 0.372985
0.211485 0.364817 0.492883
0.188302 0.382337 -0.500156
0.186247 0.507394 0.363526
0.186595 -0.489222 0.380881
0.511481 0.227695 0.390926
-0.531771 0.245793 0.374697
0.184753 0.381494 0.497703
0.218705 0.362118 -0.510965
0.227767 0.497393 0.378975
0.23869 -0.511748 0.389477
0.505308 0.231448 0.41476
-0.517205 0.233236 0.363165
0.221704 0.381133 0.497277
0.220432 0.365611 -0.495597
0.210609 0.522247 0.326405
0.22784 -0.504019 0.38334
0.481106 0.206599 0.406181
-0.512897 0.217097 0.380251
0.181866 0.378708 0.521272
0.227931 0.413162 -0.497384
0.190419 0.481079 0.427688
0.176139 -0.517552 0.391965
0.472829 0.22585 0.387948
-0.500927 0.202739 0.423003
0.192601 0.425691 0.485242
0.193464 0.430864 -0.496793
0.146705 0.503499 0.425469
0.192624 -0.507085 0.433335
0.513464 0.221735 0.434972
-0.510795 0.176457 0.391636
0.199442 0.421522 0.518788
0.210942 0.410721 -0.480206
0.236046 0.508897 0.458943
0.183201 -0.484513 0.418579
0.53425 0.215238 0.438927
-0.506639 0.198806 0.397
0.200307 0.427903 0.523552
0.191294 0.436262 -0.512641
0.23567 0.504441 0.425021
0.221483 -0.484528 0.468986
0.499839 0.22097 0.426882
-0.48574 0.172005 0.395119
0.209344 0.411192 0.502021
0.201496 0.452144 -0.504744
0.18243 0.53275 0.478358
0.227019 -0.477239 0.467183
0.519155 0.209638 0.418682
-0.530832 0.168473 0.431956
0.205637 0.427662 0.507499
0.196216 0.428238 -0.455893
0.22648 0.500675 0.427693
0.240865 -0.496528 0.429719
0.523658 0.192417 0.466634
-0.509667 0.192298 0.453417
0.229462 0.489195 0.453215
0.216397 0.463656 -0.502526
0.200843 0.507126 0.421997
0.195406 -0.487567 0.445838
0.495811 0.219617 0.464496
-0.491505 0.187147 0.458537
0.216208 0.479027 0.485633
0.21315 0.479953 -0.487156
0.191544 0.506606 0.467677
0.187486 -0.503944 0.488589
0.475166 0.190511 0.487629
-0.490792 0.188577 0.470571
0.221272 0.456567 0.507169
0.236025 0.483714 -0.51917
0.213848 0.513847 0.524275
0.212689 -0.506498 0.471604
0.481396 0.175771 0.461311
-0.501274 0.179841 0.517875
0.210652 0.459322 0.488762
0.199543 0.530462 -0.51078
0.208329 0.51784 0.49947
0.26066 -0.46343 0.476895
0.493286 0.199998 0.479326
-0.478705 0.216569 0.458116
0.214793 0.535035 0.484847
0.199018 0.467642 -0.509041
0.225786 0.4996 0.528824
0.198134 -0.550732 0.532808
0.485408 0.211943 0.468369
-0.49443 0.18385 0.497725
0.227278 -0.522702 0.494718
0.231135 -0.504273 -0.475931
0.227939 0.496281 -0.477336
0.190416 -0.477769 -0.502239
0.477931 0.220536 -0.534468
-0.55363 0.207425 -0.492704
0.229716 -0.508375 0.460108
0.179938 -0.494161 -0.486249
0.205943 0.532128 -0.500757
0.25789 -0.490829 -0.456442
0.471808 0.208775 -0.48055
-0.498618 0.203825 -0.498834
0.205906 -0.43717 0.499325
0.196812 -0.501886 -0.506615
0.227414 0.521579 -0.471572
0.207383 -0.472181 -0.512765
0.506961 0.21685 -0.510131
-0.475513 0.20891 -0.487673
0.215422 -0.423463 0.513334
0.231587 -0.442506 -0.473296
0.221804 0.475729 -0.466869
0.223397 -0.526029 -0.484955
0.458462 0.216633 -0.47707
-0.509503 0.201982 -0.455349
0.208989 -0.448685 0.516783
0.15687 -0.481071 -0.509541
0.2176 0.462354 -0.454148
0.223272 -0.49868 -0.418434
0.516286 0.212883 -0.462218
-0.465511 0.217503 -0.449318
0.230872 -0.459245 0.517631
0.234482 -0.455871 -0.470251
0.192156 0.483375 -0.434804
0.204421 -0.484777 -0.416887
0.47318 0.238461 -0.433897
-0.510226 0.212763 -0.486738
0.216106 -0.412964 0.459285
0.244858 -0.427802 -0.568737
0.225972 0.498845 -0.428342
0.234206 -0.501112 -0.458508
0.51065 0.21547 -0.420569
-0.509976 0.24435 -0.487977
0.23232 -0.449068 0.471883
0.225308 -0.443933 -0.513477
0.196529 0.494144 -0.421023
0.220098 -0.49033 -0.415209
0.469301 0.26119 -0.45265
-0.51786 0.206689 -0.437522
0.201274 -0.418765 0.471116
0.226681 -0.421537 -0.491143
0.210412 0.483609 -0.392762
0.169882 -0.520215 -0.403398
0.552887 0.226875 -0.431936
-0.501595 0.245165 -0.412276
0.231304 -0.412894 0.476079
0.220611 -0.431026 -0.479757
0.176827 0.481487 -0.405508
0.218916 -0.509081 -0.399179
0.510973 0.241162 -0.384959
-0.50802 0.198948 -0.441257
0.177542 -0.428612 0.541287
0.238543 -0.39869 -0.500921
0.228386 0.531546 -0.394516
0.233834 -0.471536 -0.394022
0.53262 0.248455 -0.412283
-0.517092 0.211805 -0.383143
0.21852 -0.402454 0.5085
0.251866 -0.419062 -0.510715
0.222992 0.509258 -0.429152
0.189177 -0.504497 -0.427429
0.482816 0.228418 -0.380561
-0.531488 0.202487 -0.359491
0.214421 -0.384213 0.502926
0.229868 -0.415802 -0.490197
0.228368 0.475597 -0.401995
0.229987 -0.550265 -0.387072
0.488184 0.187035 -0.36974
-0.486135 0.220011 -0.359733
0.203916 -0.333539 0.507502
0.201434 -0.354861 -0.492095
0.225257 0.535173 -0.345171
0.239319 -0.508682 -0.379132
0.523942 0.219715 -0.36757
-0.467028 0.211568 -0.346463
0.21568 -0.382093 0.502183
0.234956 -0.340974 -0.508824
0.22088 0.515044 -0.381196
0.2308 -0.480065 -0.351345
0.480045 0.230655 -0.357167
-0.49472 0.213097 -0.332541
0.24615 -0.335378 0.494148
0.226072 -0.37244 -0.506565
0.194151 0.522181 -0.314791
0.244707 -0.490586 -0.376007
0.503393 0.213653 -0.336066
-0.50683 0.237835 -0.363985
0.219861 -0.375473 0.502178
0.227238 -0.33237 -0.527948
0.202592 0.532307 -0.357853
0.220662 -0.496771 -0.308213
0.479897 0.214959 -0.325692
-0.480641 0.216201 -0.340698
0.239862 -0.306256 0.506167
0.224969 -0.317341 -0.519635
0.220056 0.519901 -0.340737
0.201574 -0.505715 -0.373894
0.498138 0.212258 -0.35442
-0.464395 0.23379 -0.315938
0.227877 -0.341988 0.508539
0.221425 -0.325178 -0.489557
0.212811 0.521843 -0.327713
0.217699 -0.502857 -0.343812
0.517222 0.214293 -0.299051
-0.508189 0.222655 -0.347216
0.207733 -0.29387 0.514358
0.233973 -0.302686 -0.448991
0.259153 0.471377 -0.312185
0.222335 -0.475682 -0.312007
0.527156 0.22002 -0.334559
-0.527959 0.200951 -0.326709
0.243011 -0.259802 0.501564
0.226772 -0.295983 -0.494807
0.209893 0.520986 -0.308373
0.231056 -0.494476 -0.315261
0.490738 0.221256 -0.29677
-0.486723 0.210523 -0.292965
0.196324 -0.285662 0.5155
0.247684 -0.276594 -0.466583
0.267174 0.508652 -0.313935
0.222179 -0.500003 -0.269054
0.49817 0.212744 -0.310571
-0.466334 0.199466 -0.239952
0.243692 -0.247485 0.5084
0.245016 -0.304019 -0.458383
0.173422 0.524521 -0.277274
0.204681 -0.497293 -0.310425
0.506506 0.207714 -0.238866
-0.495837 0.182492 -0.291814
0.224528 -0.267229 0.497949
0.220155 -0.264381 -0.490177
0.225779 0.527437 -0.305569
0.19974 -0.48739 -0.278264
0.510584 0.205862 -0.253729
-0.527393 0.205154 -0.255216
0.208658 -0.279756 0.502496
0.23095 -0.240156 -0.490058
0.222551 0.488877 -0.223933
0.224937 -0.505833 -0.246352
0.513413 0.209243 -0.246639
-0.480975 0.217399 -0.283097
0.207082 -0.256531 0.502135
0.246124 -0.229495 -0.500982
0.213674 0.50077 -0.269141
0.225836 -0.490033 -0.246757
0.509286 0.198803 -0.254584
-0.508294 0.161539 -0.215345
0.215112 -0.242461 0.518126
0.202106 -0.239295 -0.50219
0.203428 0.509034 -0.281206
0.201623 -0.475517 -0.230485
0.490352 0.218448 -0.230741
-0.472919 0.211369 -0.22752
0.244471 -0.233617 0.511453
0.206406 -0.184353 -0.498317
0.187706 0.509082 -0.214104
0.180818 -0.506053 -0.249476
0.494127 0.190445 -0.182411
-0.482477 0.196038 -0.228308
0.241938 -0.194407 0.495135
0.243318 -0.259189 -0.515654
0.177142 0.493392 -0.219508
0.225397 -0.497704 -0.193039
0.470563 0.21952 -0.185693
-0.493463 0.247749 -0.207779
0.223611 -0.224656 0.513355
0.243057 -0.22235 -0.52579
0.228659 0.480303 -0.191686
0.220968 -0.473896 -0.195714
0.481505 0.203175 -0.23939
-0.521744 0.202085 -0.201039
0.211474 -0.195666 0.501618
0.226015 -0.209216 -0.49902
0.220482 0.475755 -0.184863
0.210181 -0.511978 -0.147991
0.485768 0.215898 -0.228771
-0.501178 0.205275 -0.159274
0.209389 -0.197852 0.47034
0.20874 -0.212643 -0.496573
0.198935 0.475568 -0.181574
0.24541 -0.506517 -0.171546
0.511368 0.180959 -0.204663
-0.517805 0.186406 -0.19295
0.221085 -0.199114 0.501642
0.229038 -0.180591 -0.499481
0.208637 0.522833 -0.160004
0.22594 -0.463079 -0.167934
0.46421 0.239393 -0.173301
-0.511327 0.226738 -0.171174
0.209053 -0.178318 0.510972
0.255281 -0.170236 -0.52559
0.226 0.531308 -0.193619
0.239994 -0.490812 -0.200197
0.520828 0.179263 -0.179315
-0.495421 0.204503 -0.154184
0.210685 -0.166877 0.506247
0.205597 -0.154492 -0.521865
0.221984 0.50081 -0.148879
0.235219 -0.473256 -0.188555
0.518002 0.221061 -0.139239
-0.507557 0.230705 -0.205324
0.204377 -0.158049 0.485603
0.202849 -0.167216 -0.481053
0.216098 0.500194 -0.194469
0.213661 -0.502488 -0.137442
0.501549 0.241746 -0.161408
-0.493024 0.241134 -0.124047
0.204378 -0.145775 0.513971
0.195297 -0.149063 -0.497686
0.230004 0.492895 -0.159831
0.215716 -0.472277 -0.121214
0.485441 0.194068 -0.134306
-0.512185 0.220342 -0.134222
0.216869 -0.154283 0.445621
0.24853 -0.109229 -0.480418
0.212373 0.500166 -0.145946
0.208374 -0.47217 -0.152674
0.488823 0.236291 -0.109677
-0.47395 0.21529 -0.180386
0.217066 -0.105477 0.485195
0.217944 -0.118363 -0.494965
0.212475 0.502075 -0.114257
0.193085 -0.534517 -0.0755679
0.508175 0.228204 -0.0662284
-0.508292 0.219891 -0.121158
0.23484 -0.0860591 0.493473
0.195933 -0.0814698 -0.508634
0.223746 0.506021 -0.0833396
0.232961 -0.492525 -0.143155
0.49094 0.192525 -0.102786
-0.491533 0.201177 -0.133386
0.210919 -0.108881 0.498879
0.208607 -0.119644 -0.541611
0.246179 0.482282 -0.0791147
0.257629 -0.50564 -0.133013
0.51156 0.223989 -0.105799
-0.50297 0.238783 -0.137963
0.23057 -0.10251 0.518012
0.216255 -0.141568 -0.499273
0.243042 0.522259 -0.116596
0.225266 -0.502557 -0.0850759
0.487991 0.215924 -0.0577345
-0.477673 0.181509 -0.0673977
0.223537 -0.0744333 0.483175
0.235023 -0.107837 -0.484692
0.205284 0.484529 -0.0670898
0.205459 -0.522663 -0.078199
0.513458 0.208968 -0.0733533
-0.508081 0.247581 -0.0916018
0.268404 -0.0500418 0.494859
0.222346 -0.0676636 -0.471885
0.215438 0.517535 -0.0850705
0.22876 -0.504389 -0.0513841
0.497806 0.203388 -0.0915288
-0.463375 0.217127 -0.0429286
0.217135 -0.0246707 0.500467
0.224259 -0.0533818 -0.511806
0.214656 0.49064 -0.0733118
0.227797 -0.511038 -0.043863
0.471728 0.216658 -0.0555748
-0.506212 0.2098 -0.0739251
0.195879 -0.031689 0.488855
0.212058 -0.0428917 -0.528947
0.213183 0.496347 -0.0656856
0.203544 -0.485704 -0.0446548
0.500875 0.221691 -0.0252132
-0.498107 0.21813 -0.0182426
0.183083 -0.0118024 0.489255
0.201618 -0.0350946 -0.516505
0.22145 0.505595 -0.0526046
0.201994 -0.494208 -0.0577993
0.47226 0.254296 -0.0439425
-0.54722 0.236259 -0.0326052
0.223726 -0.0129051 0.503963
0.1898 -0.0250951 -0.516328
0.206042 0.471411 -0.0127501
0.177762 -0.472332 -0.0788928
0.508245 0.225851 0.00896057
-0.508732 0.233518 0.0105666
0.214215 -0.0246568 0.476885
0.199887 -0.0252614 -0.514298
0.243812 0.502579 -0.0177904
0.20257 -0.490321 -0.0176267
0.504838 0.203556 0.0397637
-0.504231 0.248137 0.031683
0.238796 0.0254879 0.496561
0.268996 -0.0186555 -0.497868
0.190601 0.476454 0.0101324
0.220907 -0.465606 0.00891451
0.491356 0.220143 -0.0100057
-0.509269 0.248154 0.00587645
0.229645 -0.00890224 0.511458
0.222041 -0.00376899 -0.526453
0.234679 0.478395 0.00478821
0.240641 -0.509374 -0.00754922
0.50534 0.241611 0.0171903
-0.509894 0.207082 0.00473289
0.201113 0.0271269 0.474507
0.223418 -0.00974422 -0.482439
0.235468 0.47991 -0.0283583
0.202732 -0.477136 0.0222201
0.479526 0.246602 0.0370099
-0.483542 0.204366 0.00533143
0.193549 0.0401858 0.511109
0.218846 0.0287088 -0.512976
0.233027 0.509283 0.049574
0.258491 -0.478966 0.0311562
0.492998 0.23167 0.0392997
-0.509775 0.207792 0.00195903
0.255766 0.0182516 0.485393
0.222342 0.0192106 -0.538352
0.182347 0.453165 0.0350483
0.205433 -0.503956 0.0163278
0.548532 0.203506 0.0445017
-0.475365 0.211334 0.0144202
0.241972 0.00709185 0.484811
0.215098 0.0475758 -0.506784
0.21394 0.491804 0.0636664
0.199575 -0.522057 0.0505431
0.524444 0.240378 0.0178147
-0.505456 0.213873 0.0649869
0.250016 0.0619055 0.502799
0.202445 0.0601665 -0.528187
0.193904 0.476131 0.0500581
0.224079 -0.489683 0.0670182
0.491951 0.214951 0.0341123
-0.505436 0.185899 0.0345784
0.204567 0.0617982 0.501204
0.216332 0.0703384 -0.494289
0.228099 0.454054 0.040851
0.232405 -0.481876 0.0692681
0.520929 0.225186 0.04943
-0.49349 0.245022 0.0510313
0.263713 0.086621 0.517698
0.226237 0.102116 -0.504441
0.191469 0.4823 0.0763937
0.228235 -0.509015 0.0842009
0.513067 0.221045 0.0615147
-0.489188 0.236344 0.0837067
0.23187 0.0855162 0.49735
0.236302 0.0888684 -0.52465
0.214552 0.506945 0.0468374
0.243133 -0.503155 0.0720854
0.511411 0.207714 0.0807273
-0.493108 0.238455 0.105925
0.208634 0.119825 0.513351
0.22331 0.0799909 -0.512339
0.191411 0.510104 0.121032
0.221028 -0.512292 0.0810478
0.475138 0.208586 0.090041
-0.521318 0.227967 0.091842
0.229824 0.104149 0.486736
0.222767 0.136738 -0.476816
0.200251 0.464103 0.139871
0.248892 -0.517447 0.0800606
0.487948 0.215694 0.124205
-0.495569 0.231953 0.121078
0.208195 0.0920161 0.520058
0.227154 0.13661 -0.486922
0.221384 0.508637 0.110755
0.23124 -0.486638 0.10906
0.48223 0.206602 0.110949
-0.506679 0.23759 0.0837689
0.238873 0.105284 0.512687
0.19607 0.123992 -0.475108
0.203369 0.505838 0.108373
0.21136 -0.461955 0.108997
0.516765 0.237802 0.12612
-0.50087 0.206297 0.137719
0.224618 0.0983315 0.482656
0.236666 0.128323 -0.486514
0.196949 0.476976 0.135251
0.200036 -0.473368 0.128105
0.483548 0.215042 0.175491
-0.497272 0.203143 0.145556
0.243021 0.165793 0.512205
0.208608 0.139649 -0.485109
0.233493 0.508717 0.138334
0.158206 -0.439567 0.160666
0.503537 0.204269 0.139324
-0.505192 0.225892 0.125703
0.196029 0.145105 0.521982
0.205068 0.177505 -0.472576
0.200191 0.485603 0.114135
0.22172 -0.464565 0.170635
0.490084 0.235089 0.166087
-0.483666 0.238023 0.157602
0.208706 0.160075 0.474496
0.230879 0.190588 -0.526881
0.233347 0.513267 0.173306
0.230216 -0.521233 0.144033
0.494623 0.211398 0.135765
-0.499177 0.228341 0.225374
0.22108 0.193108 0.468566
0.203482 0.15056 -0.482722
0.176021 0.498733 0.186569
0.19701 -0.521281 0.159598
0.506345 0.235822 0.174611
-0.515138 0.200032 0.161638
0.191474 0.186897 0.46992
0.239329 0.187487 -0.509282
0.188866 0.484713 0.210637
0.227693 -0.504935 0.211273
0.494056 0.219072 0.197023
-0.51173 0.20688 0.205017
0.231739 0.24857 0.478905
0.249956 0.192179 -0.507171
0.221242 0.503209 0.137973
0.191716 -0.487672 0.163341
0.524569 0.214161 0.184537
-0.485238 0.201796 0.198267
0.182485 0.239592 0.491218
0.228312 0.196099 -0.480843
0.226761 0.479202 0.206788
0.198131 -0.486964 0.206853
0.512708 0.246398 0.220471
-0.523118 0.216063 0.22178
0.216259 0.189044 0.527687
0.185477 0.188805 -0.498574
0.217912 0.520845 0.201299
0.230072 -0.503598 0.213201
0.518917 0.224781 0.238755
-0.474208 0.193631 0.26031
0.237553 0.201643 0.457712
0.220911 0.207045 -0.536905
0.223924 0.501326 0.253881
0.221958 -0.500219 0.262424
0.510181 0.215557 0.185679
-0.483572 0.221532 0.244718
0.2291 0.242639 0.524458
0.260716 0.205464 -0.481645
0.178623 0.511017 0.241906
0.218982 -0.46138 0.21677
0.491473 0.216557 0.244508
-0.476273 0.237927 0.236176
0.216247 0.239314 0.50865
0.207268 0.221233 -0.513891
0.220041 0.488046 0.246768
0.219633 -0.470927 0.21784
0.501251 0.213519 0.229244
-0.490808 0.208908 0.249471
0.194959 0.273757 0.483154
0.215265 0.251099 -0.532664
0.194255 0.500532 0.276458
0.202519 -0.540518 0.241637
0.527234 0.225884 0.223653
-0.485265 0.228025 0.287794
0.229259 0.247235 0.473804
0.249048 0.314208 -0.493609
0.2102 0.508574 0.298483
0.222543 -0.532837 0.287296
0.496114 0.233194 0.243405
-0.507738 0.224669 0.262797
0.197888 0.264782 0.486655
