ply
format ascii 1.0
comment sampling resolution: 0.01
comment noise level: 0.03
comment Created by Open3D
element vertex 1684
property double x
property double y
property double z
end_header
-0.139474 -0.501146 0.459097
0.482934 -0.0922647 0.489016
-0.154519 0.506642 0.516534
-0.173563 0.509738 -0.495561
-0.0942147 0.494765 0.513716
-0.149368 -0.487626 0.566043
0.485979 -0.134058 0.514043
-0.471485 -0.143903 0.499349
-0.131242 -0.480114 0.527569
-0.0757772 -0.539313 -0.518546
-0.194512 0.483644 -0.528615
-0.127125 -0.53325 -0.526883
0.499245 -0.152545 -0.533201
-0.487753 -0.0938309 -0.490456
-0.120469 -0.41026 0.568738
-0.101959 -0.468312 -0.466841
0.487775 -0.095747 -0.463819
-0.500444 -0.0903735 -0.436333
-0.148693 -0.464312 -0.565199
-0.0929444 0.481331 -0.442422
-0.158619 -0.48171 -0.450722
0.520636 -0.12137 -0.41694
-0.112862 -0.465148 0.546641
-0.140975 0.495227 -0.474117
-0.114531 -0.49689 -0.48444
0.501695 -0.159269 -0.509011
-0.142464 -0.449882 0.509798
-0.0675178 -0.479171 -0.468461
-0.155449 -0.52826 -0.472043
-0.493815 -0.0745693 0.459033
-0.117202 0.522455 0.476168
0.503102 -0.143147 0.451492
-0.486137 -0.153255 0.422939
-0.112864 0.457781 0.491101
-0.116222 0.500003 0.540515
0.486735 -0.107786 0.414194
-0.120248 0.464351 0.504786
-0.148877 0.46735 -0.487738
-0.116866 -0.535057 0.497261
0.480244 -0.128991 0.489192
-0.169339 0.470729 0.517636
-0.172062 0.516801 -0.467713
-0.116872 0.52501 0.456576
-0.517548 -0.15418 0.496517
-0.177173 0.482275 0.535138
-0.121563 0.511985 -0.502565
-0.11813 0.522003 0.530938
-0.108095 -0.536038 0.514539
0.534302 -0.169735 0.518677
-0.419576 -0.083014 0.529082
-0.0931665 -0.509296 0.507855
-0.111837 -0.534884 -0.503353
-0.125966 0.422794 -0.464593
-0.142583 -0.514263 -0.530829
0.482953 -0.14227 -0.491937
-0.556379 -0.106758 -0.495308
-0.167024 -0.450813 0.490394
-0.118275 -0.485352 -0.518792
-0.153427 0.524565 -0.493028
-0.10474 -0.49647 -0.475625
-0.568458 -0.136843 -0.499124
-0.0872039 -0.485423 0.512878
-0.0950719 -0.563038 -0.486285
-0.116195 0.514064 -0.499602
0.449868 -0.118655 -0.454396
-0.111652 -0.425469 0.532305
-0.107846 -0.496555 -0.519424
-0.490953 -0.106733 -0.499515
-0.166684 0.462683 0.522428
-0.192834 0.455484 0.458623
-0.523373 -0.0891948 0.454692
-0.13198 0.444291 -0.471332
-0.103248 0.500748 0.496107
-0.0722109 -0.442752 0.498947
0.462967 -0.113228 0.51311
-0.481443 -0.141219 0.515058
-0.106758 0.493369 0.482214
-0.139598 0.529767 0.516541
-0.196803 -0.465604 0.430672
0.49847 -0.167534 0.573066
-0.467412 -0.126353 0.521511
-0.117171 0.471633 0.503697
-0.129361 0.514906 -0.487832
-0.139924 0.480987 0.4647
-0.184629 -0.545144 0.459197
0.505209 -0.119329 0.491877
-0.513996 -0.122957 0.473719
-0.0863227 -0.492697 0.506624
-0.142318 -0.456949 -0.476644
-0.124168 0.543521 -0.464445
-0.156891 -0.520919 -0.448301
0.540066 -0.127122 -0.536307
-0.515001 -0.123115 -0.510767
-0.126092 0.543372 -0.519382
-0.136894 -0.497496 -0.484547
0.49182 -0.100221 -0.519378
-0.488209 -0.0473844 -0.447133
-0.116986 -0.481858 0.487583
-0.0496166 -0.502514 -0.464691
0.546233 -0.0674699 -0.481065
-0.155016 -0.479608 0.536423
-0.101711 -0.486431 -0.442639
0.510022 -0.0926216 -0.454543
-0.449922 -0.108313 -0.450707
-0.0982292 0.510069 0.475561
-0.132492 0.446326 -0.564887
0.475317 -0.0988435 0.417821
-0.536615 -0.0685485 0.412721
-0.0927164 0.502737 0.529005
-0.127639 0.535722 0.487027
0.526344 -0.0565875 0.469446
-0.503253 -0.130662 0.424829
-0.0952658 0.500693 -0.522296
0.482343 -0.0685642 0.457556
-0.125032 0.500706 0.521887
-0.12861 0.461598 -0.513092
-0.0419908 0.464659 0.43521
-0.13594 -0.52991 0.487788
-0.536341 -0.106469 0.474885
-0.0710786 0.517994 0.488921
-0.0750589 0.520466 -0.445576
-0.0976206 0.472362 0.475737
-0.0816697 -0.455872 0.450751
0.506432 -0.117644 0.487182
-0.517327 -0.0557536 0.499427
-0.0994013 -0.545121 0.428153
-0.0832336 -0.518707 -0.507567
-0.120813 0.50032 -0.449871
-0.0904456 -0.475205 -0.477201
0.55372 -0.115561 -0.515172
-0.491232 -0.0853174 -0.539568
-0.0292477 -0.536215 0.480621
-0.0738955 -0.468849 -0.496604
-0.0900161 0.474216 -0.523428
0.504654 -0.125742 -0.516749
-0.519489 -0.0742302 -0.529126
-0.0980271 -0.490661 0.553416
-0.117145 0.517795 -0.444748
-0.106259 -0.500193 -0.503868
0.501674 -0.109184 -0.502627
-0.0481508 -0.48996 0.520071
-0.0651879 0.535242 -0.413816
-0.0497221 0.483554 0.448404
0.445849 -0.0776731 0.454662
-0.145183 0.494446 0.584758
-0.0499087 0.463616 -0.538539
-0.0515014 -0.51079 0.44926
0.483149 -0.132903 0.484018
-0.0950384 0.533037 0.496306
-0.0519427 0.491386 -0.515478
-0.112668 0.47145 0.463273
-0.117422 -0.483951 0.47422
0.458728 -0.11806 0.452608
-0.492176 -0.098875 0.448396
-0.0966597 0.499483 0.541577
-0.114933 0.51536 -0.556213
-0.115871 0.518318 0.491112
-0.104507 -0.488575 0.437449
0.489936 -0.11551 0.468199
-0.493939 -0.106428 0.493875
-0.121332 -0.453349 0.493395
-0.0603162 -0.517329 -0.533352
-0.0603953 0.500926 -0.539113
-0.118465 -0.512123 -0.466204
0.47624 -0.0980857 -0.485055
-0.531622 -0.079394 -0.451545
-0.0588076 -0.45202 0.554325
-0.119296 -0.485678 -0.427859
0.459654 -0.0933768 -0.453405
-0.471506 -0.120931 -0.523262
-0.105595 -0.51568 0.497167
-0.0759591 -0.466368 -0.480999
-0.0963644 0.479547 -0.510153
0.509023 -0.0925535 -0.491352
-0.531562 -0.0979966 -0.478765
-0.0449879 -0.495332 0.484755
-0.0809881 -0.48347 -0.493036
-0.0939058 -0.525041 -0.456917
-0.0390169 0.489908 -0.498061
-0.0873332 0.463195 0.506573
0.460888 -0.0985044 0.461365
-0.563155 -0.107541 0.499555
-0.0937219 0.459868 0.499206
-0.0880446 -0.482579 0.47995
-0.123685 0.472323 0.542617
-0.0740738 0.460578 -0.483328
-0.105753 0.525155 0.482736
-0.122541 -0.51465 0.492558
0.492866 -0.113665 0.514393
-0.506132 -0.0902069 0.472363
-0.0975412 0.537293 0.507788
-0.0492433 0.490276 -0.511326
-0.0986462 0.520482 0.452154
-0.0951279 -0.493943 0.477257
0.461312 -0.065885 0.507856
-0.489819 -0.0886126 0.441975
-0.0603047 -0.489462 0.527589
-0.0968582 -0.520569 -0.468752
-0.0887283 0.552525 -0.486566
-0.0830299 -0.496047 -0.519226
0.502275 -0.0694957 -0.503074
-0.48817 -0.0535052 -0.455302
-0.112748 -0.475445 0.499043
-0.0619794 0.533096 -0.466834
-0.0806501 -0.502994 -0.518937
-0.524196 -0.0915574 -0.456727
-0.0589595 -0.518804 0.48821
-0.138487 -0.529224 -0.50233
-0.484047 -0.061281 -0.528842
-0.0925562 0.517791 -0.429349
-0.489261 -0.0662427 -0.503663
-0.0909311 -0.464089 0.515241
-0.0776291 -0.494484 -0.433807
-0.0898352 0.502237 -0.452178
-0.0744467 -0.509377 0.463097
-0.0332876 0.402983 -0.457817
-0.0432637 0.530851 0.472772
-0.0421076 0.462032 0.43976
-0.0333982 -0.544376 0.50441
0.546502 -0.0638513 0.460747
-0.50417 -0.103787 0.454844
-0.0853183 0.528584 0.504777
-0.0292233 0.4899 0.508265
-0.10315 -0.56135 0.507032
0.434926 -0.118491 0.497617
-0.0606743 0.470117 0.493567
-0.0459748 0.521506 -0.518425
-0.0865769 0.546909 0.517951
-0.0534617 -0.541741 0.526496
0.445663 -0.0415873 0.524609
-0.507741 -0.0675808 0.508494
-0.066057 -0.468971 0.463985
-0.0819658 -0.507195 -0.486623
-0.0408505 0.51327 -0.553406
-0.0790107 -0.523492 -0.503121
0.525647 -0.0696856 -0.487311
-0.501134 -0.0261909 -0.50826
-0.131294 -0.486343 0.442779
-0.0759561 -0.507023 -0.540556
-0.05965 0.511938 -0.518824
-0.0681995 -0.474301 -0.41448
0.489354 -0.0873757 -0.477868
-0.509505 -0.0967284 -0.537442
-0.0322269 -0.46468 -0.517702
-0.0358167 0.43372 -0.430089
-0.0467805 -0.510264 -0.497509
-0.450111 -0.0897385 -0.492555
-0.0571619 -0.464308 0.466107
-0.0943942 0.50648 -0.485335
0.50378 -0.0522566 -0.482742
-0.0665647 -0.479221 -0.520904
-0.0803685 -0.493726 -0.412241
-0.0958817 0.467617 0.492908
-0.0727852 0.450501 0.426693
-0.117447 0.464019 -0.483956
-0.0955915 0.539559 0.446252
-0.0719796 0.484224 0.466029
-0.0308742 -0.470973 0.441434
0.458647 -0.0583784 0.489803
-0.0603406 0.45716 0.479572
-0.0787371 0.501535 -0.443792
-0.0579439 0.529678 0.446972
-0.0626939 -0.496533 0.506961
0.464405 -0.0745899 0.490108
-0.0535635 0.507064 0.473144
-0.0923629 0.481095 -0.501217
-0.0793357 0.527531 0.533459
-0.0562588 -0.470999 0.490946
0.481678 -0.0312258 0.450534
-0.47327 -0.0579746 0.439903
-0.0361181 -0.482122 0.431603
-0.0514822 -0.467219 -0.479176
-0.0575349 0.502198 -0.577046
-0.0732209 -0.528835 -0.518547
0.472831 -0.128174 -0.532084
-0.491685 -0.0802567 -0.525124
0.00249376 -0.467828 -0.51595
-0.0560269 -0.587461 -0.468091
0.509666 -0.0961166 -0.510175
-0.457065 -0.0375261 -0.485394
-0.0533354 0.504795 -0.467279
-0.0640603 -0.521783 -0.439723
0.538525 -0.0752833 -0.433013
-0.0396487 -0.453147 0.53269
-0.0756951 -0.500338 -0.473653
-0.500682 -0.0770385 -0.49233
-0.0672871 0.44518 -0.521548
0.0612498 -0.595511 0.452293
-0.0610266 0.507591 0.568273
-0.0796722 0.448624 -0.471779
-0.0144511 0.520425 0.465625
0.0103504 -0.477555 0.469271
-0.515432 -0.00391671 0.495337
-0.0452611 0.468204 0.541189
-0.042583 0.465452 -0.556018
-0.0520875 -0.471541 0.533129
0.533509 -0.0674638 0.482508
-0.477749 -0.0605965 0.485892
-0.0614677 0.482418 0.455423
-0.137807 0.479112 -0.479652
-0.0854766 0.506555 0.50482
-0.0919231 -0.532794 0.48087
0.5716 0.0212014 0.514994
-0.507311 -0.0618104 0.506663
-0.0187319 -0.477508 0.533062
-0.0385087 -0.45901 -0.486674
-0.0481102 0.461162 -0.476
-0.0281938 -0.484046 -0.556044
0.433246 -0.0363801 -0.465283
-0.479411 0.00592625 -0.543915
-0.0720743 -0.516902 -0.503975
-0.0503998 -0.469141 0.449766
-0.0494014 -0.452955 -0.522581
-0.0426727 0.478012 -0.505528
-0.0839065 -0.500951 -0.478942
0.535852 -0.0607072 -0.488045
-0.507345 0.010062 -0.461343
-0.0237054 -0.495067 -0.490507
-0.0202816 -0.481472 0.477987
-0.0589045 -0.563827 0.434188
-0.0129445 0.444853 -0.519554
0.547891 -0.0451789 0.494595
-0.0457943 0.479513 -0.507492
-0.046216 0.539116 0.439364
-0.117015 -0.497188 0.435461
-0.482548 -0.0778783 0.483619
-0.0310952 0.434489 0.475531
-0.0193318 -0.499139 0.527125
0.532935 -0.0873286 0.515533
-0.0520764 0.482838 0.486789
-0.086288 0.527526 -0.51256
-0.0704846 0.5176 0.497505
-0.0662713 -0.524918 0.533027
0.52866 0.00272472 0.506164
-0.480522 -0.0339968 0.497356
-0.0541119 -0.409967 0.48329
-0.105402 -0.49346 -0.562496
-0.0745727 0.529624 -0.51173
-0.0708732 -0.450118 -0.547474
0.449783 -0.0108079 -0.541304
-0.521923 -0.0456923 -0.524178
-0.0126058 -0.442739 -0.480053
0.489137 -0.0608802 -0.525952
-0.461577 -0.0717864 -0.489998
-0.113079 -0.499725 -0.527041
-0.0349163 -0.496515 -0.489083
-0.49432 -0.0236783 -0.496423
-0.0475362 0.53886 -0.478526
0.479731 -0.0587525 -0.480556
-0.50386 -0.0795965 -0.466513
-0.0809208 0.459869 0.447569
0.0018583 0.466199 -0.520866
-0.0235682 0.526079 0.591558
-0.0250389 0.469428 -0.442298
-0.062316 0.466413 0.509582
-0.0679758 0.457048 -0.473822
-0.0683618 -0.503998 0.549178
0.502385 0.0129343 0.531631
-0.545295 -0.0488859 0.463575
-0.0477817 0.506172 0.481139
-0.0813744 0.53646 -0.496376
-0.0550816 0.550423 0.526433
-0.0317237 -0.411808 0.477085
0.498612 0.00938057 0.456418
-0.523199 -0.054184 0.463984
0.00556927 -0.522011 0.451167
-0.00818921 -0.456048 -0.461846
-0.0160935 0.471509 -0.457154
-0.0128619 -0.444209 -0.507909
0.532749 -0.0224051 -0.472126
-0.493732 -0.0315779 -0.516844
-0.0928394 -0.458957 0.464562
-0.0334816 -0.480594 -0.491846
-0.0262986 0.492655 -0.464202
-0.0142912 -0.524638 -0.43354
0.469754 -0.0337643 -0.480843
-0.0358381 -0.51158 -0.519139
-0.487875 0.00413296 -0.449025
-0.0324768 -0.468027 0.486724
-0.0389063 -0.494183 -0.48464
-0.0489547 0.474928 0.532076
-0.499307 -0.0318164 0.489778
-0.056819 0.49113 0.530403
-0.0335419 0.46278 0.493557
0.0125583 0.468041 -0.54437
-0.00312919 0.505524 0.525509
-0.084018 -0.508625 0.510061
-0.529939 -0.0815454 0.556701
-0.0563646 0.492914 0.444419
-0.018037 0.470277 -0.517732
-0.0287243 0.471059 0.517103
-0.0352828 -0.472013 0.568658
0.48538 -0.0625591 0.504802
-0.550394 -0.0390674 0.487172
0.0366368 -0.507223 0.495124
-0.0149796 -0.494728 -0.542678
0.0050561 0.513548 -0.472524
-0.0223606 -0.518947 -0.465904
0.517386 -0.00605945 -0.528958
-0.52053 -0.0402428 -0.509678
-0.0175855 0.477489 -0.490403
0.529495 -0.0467541 -0.499913
-0.51592 0.00626826 -0.498211
0.0286312 -0.47932 0.560769
0.00696486 -0.429904 -0.520846
-0.0494327 -0.548183 -0.438716
0.542014 -0.0235477 -0.512401
-0.4578 -0.0232062 -0.475482
-0.0319505 0.422947 0.508048
-0.520132 -0.024939 0.511433
-0.0620155 0.453035 0.505143
-0.0141354 0.547945 -0.4638
0.502997 0.000368462 0.50073
-0.526192 -0.0239087 0.515036
0.0187765 0.512987 0.467373
0.0114926 0.449611 -0.558306
-0.0716928 0.475047 0.489056
-0.056257 -0.492685 0.459497
0.442015 -0.0456145 0.50348
-0.500971 0.0224017 0.48009
0.00884672 0.495994 0.538586
-0.0409501 0.523393 -0.532635
-0.0165207 0.49813 0.493638
-0.0220378 -0.50355 0.499422
0.508273 -0.0217844 0.513235
-0.49411 -0.0348533 0.50157
0.0447958 -0.496511 0.522063
0.0147425 -0.528701 -0.554008
0.0138568 0.46639 -0.47924
0.075749 -0.474688 -0.496505
0.488054 0.0216143 -0.501188
-0.451403 -0.00818743 -0.509047
-0.00624437 -0.498512 0.500262
8.3599e-05 -0.506023 -0.459483
-0.0269095 0.528114 -0.466786
0.00388198 -0.548436 -0.461382
0.527702 0.00164611 -0.483551
-0.485517 0.0378851 -0.459771
-0.0471786 -0.455641 0.517811
0.00354819 -0.442891 -0.493475
-0.0177772 0.484534 -0.502637
0.0138125 -0.488794 -0.457026
-0.52133 0.00674634 -0.545742
0.0377007 -0.464991 -0.47077
0.0343059 0.466725 0.503489
0.00111688 0.458267 -0.503342
-0.012597 0.468258 -0.527628
-0.0381602 -0.491668 0.482194
0.515332 -0.0446139 0.528927
-0.528487 -0.0127299 0.508727
0.00785311 0.448906 0.427377
-0.0417762 0.471274 0.456876
-0.0482197 -0.531272 0.531337
0.504376 0.0217512 0.47186
-0.534638 0.0132997 0.495831
-0.0635618 0.505761 0.486587
-0.0650801 0.482043 -0.489059
0.00042456 0.502214 0.51107
-0.0297238 -0.515468 0.500245
0.480088 0.00852991 0.529642
-0.533937 0.0146281 0.532498
-0.0424138 -0.495289 0.45415
-0.048014 -0.528908 -0.477267
0.00729869 0.49616 -0.506899
0.00635423 -0.524014 -0.536607
0.491846 0.00832929 -0.497448
-0.478335 -0.00942844 -0.526051
0.0382142 -0.526794 -0.46046
-0.0278766 0.535661 -0.512259
-0.016737 -0.505627 0.524227
0.0923843 -0.513445 -0.501857
-0.0513878 0.511357 -0.467446
-0.0411137 -0.480477 -0.486399
0.452311 -0.000554814 -0.506582
-0.440067 0.0130846 -0.453731
-0.03319 -0.446846 -0.436709
0.0142151 0.519898 0.446072
0.508552 -0.00913848 0.487754
-0.0145621 0.485322 0.497752
-0.0139792 0.505871 0.431001
0.0164251 -0.47793 0.461105
0.522556 -0.0255532 0.496228
-0.472314 -0.0149479 0.486363
-0.000908527 0.537544 0.479729
0.0124722 0.550677 -0.451898
0.00228781 0.47957 0.497203
-0.0076312 -0.52436 0.506752
0.462389 -0.0412038 0.436766
0.0342663 0.531796 0.532553
-0.047802 0.518685 -0.496444
-0.0021801 0.457138 0.448423
0.043393 -0.534259 0.486915
0.475575 -0.00219817 0.523901
-0.514816 0.0442151 0.502909
0.0498451 -0.521149 0.457697
0.0143781 -0.476907 -0.510087
0.0135424 0.505596 -0.470007
0.0824744 -0.494503 -0.524848
0.468382 0.00816348 -0.506298
-0.512945 0.0114171 -0.51155
0.0557412 -0.522737 0.509741
-0.000837254 -0.466391 -0.539444
-0.0436126 0.435905 -0.48957
-0.0176401 -0.513597 -0.477332
0.512897 0.00515728 -0.475082
-0.504399 0.0293478 -0.562839
0.047014 -0.563784 0.518057
0.0161053 -0.429777 -0.519645
0.537347 0.0235088 -0.520608
0.483586 -0.00716212 -0.521224
0.487356 -0.00274468 -0.509936
-0.0142181 0.436359 -0.457617
-0.467358 0.00567066 0.424761
0.0213115 0.420782 -0.509509
-0.0194448 0.51814 0.502716
-0.00598628 -0.502085 0.47383
0.493986 -0.0292943 0.50199
-0.495997 -0.00511579 0.44751
-0.00419082 0.514453 0.523989
0.0360001 0.559427 -0.519248
-0.0175023 0.496346 0.510384
0.0371372 -0.520913 0.487119
-0.454062 0.0496105 0.486347
0.0458213 0.517913 0.4984
0.00676861 0.502343 -0.553351
0.00330832 0.4327 0.524228
0.0327791 -0.531306 0.492115
0.441718 0.00842829 0.427171
-0.521074 0.0427646 0.449731
-0.027745 -0.574211 0.502459
-0.0516495 -0.510909 -0.508929
0.0560548 0.499938 -0.508089
0.0410246 -0.466914 -0.474354
0.542693 -0.0140967 -0.54751
-0.508866 0.0221067 -0.522244
0.0326351 -0.462404 0.496083
0.0331832 0.486629 -0.506423
0.0226779 -0.510261 -0.503786
-0.471069 0.0365316 -0.469539
-0.0071495 -0.464634 -0.452431
-0.411407 0.0489625 -0.442368
-0.0251604 0.504633 0.497298
-0.0471015 0.475598 0.454429
0.0708907 0.508581 0.469539
0.502661 -0.0173377 0.451594
0.0428415 0.506723 0.523862
0.020082 -0.513028 0.447033
0.528443 0.04198 0.502815
0.00377494 0.486308 -0.504929
0.0320897 -0.467984 0.497001
0.444374 -0.0292761 0.571096
-0.503036 0.0561766 0.49251
0.0887127 0.411488 0.529158
0.0154606 0.513334 -0.516733
0.0193069 0.507578 0.519451
-0.0192865 -0.468486 0.486607
0.481228 0.0543354 0.483144
-0.551307 0.075839 0.536739
0.0150707 -0.538928 0.468423
0.0161576 -0.510959 -0.513212
0.035442 0.457754 -0.550097
0.0303377 -0.51011 -0.502436
0.48372 -0.00699152 -0.482997
-0.504476 0.0480863 -0.504503
0.0478814 -0.450246 0.49312
0.0274351 -0.505604 -0.497726
0.0121853 0.511563 -0.516904
-0.429593 0.0417509 -0.464166
0.0711313 0.486258 -0.468484
0.0626595 -0.544109 -0.479539
0.0625489 -0.464108 -0.51219
0.0403135 0.452516 -0.479683
-0.507025 0.0581966 -0.502867
0.0486366 -0.441522 0.489973
-0.041841 0.55272 0.473451
-0.0113047 0.44495 0.473204
-0.0231857 0.471248 0.433717
0.0277532 0.473076 -0.535491
0.0143334 -0.535027 0.481637
-0.445245 0.0579574 0.484042
-0.0187794 0.472423 -0.497769
0.50517 0.0376018 0.512937
0.00484424 0.47752 0.562517
0.0405347 0.431447 -0.502974
0.0309757 0.50543 0.508558
0.0436503 -0.544299 0.529537
0.500514 0.0201965 0.502257
-0.509246 0.0157681 0.527179
0.0778111 -0.541325 0.488978
0.0756231 -0.43395 -0.48604
0.0417064 0.52191 -0.551764
0.00061258 -0.469963 -0.48669
0.486496 0.0662263 -0.503359
-0.541636 0.0650692 -0.518304
0.0371886 -0.448479 0.52414
0.0562996 -0.531086 -0.489535
0.49762 0.0408523 -0.464966
-0.519999 0.0669263 -0.424448
-0.0308449 -0.51304 0.494872
0.0471857 0.508313 -0.431119
-0.524915 0.0245226 -0.428872
0.0533037 -0.458015 0.511196
0.539171 -0.000702175 -0.442462
0.0268547 -0.494006 0.499114
0.476002 0.0418331 0.509807
0.0579698 0.469338 0.478913
0.00413321 0.558877 -0.528499
0.0629816 0.566291 0.479197
0.0071603 -0.476582 0.50458
-0.458757 0.0514849 0.456581
-0.019132 0.507423 -0.533516
0.00938058 0.48172 0.406248
0.030504 -0.460306 0.471928
-0.475732 0.0118243 0.470725
0.0145361 0.497677 0.510475
0.109043 0.479294 -0.476677
0.0364667 0.500113 0.482579
0.0878148 -0.48118 0.504755
0.518453 0.0486771 0.489414
-0.474841 0.0537497 0.489517
0.0651612 -0.513313 0.482381
0.0798859 -0.548666 -0.541348
0.100921 0.53135 -0.482742
0.0608255 -0.532226 -0.480142
0.475223 0.00433342 -0.514535
-0.443685 0.0405314 -0.52492
0.0674516 -0.498449 -0.470331
0.46607 0.0250233 -0.493593
-0.510668 0.0553671 -0.507364
0.0487613 -0.473424 0.496517
0.0696626 -0.459059 -0.526279
0.0121141 -0.501005 -0.441046
0.489124 0.05918 -0.467816
-0.560667 0.0383683 -0.515843
0.00723126 -0.534352 0.461872
0.00736313 -0.48881 -0.507051
0.516447 0.0267802 -0.463984
-0.537642 0.0814796 -0.493724
0.485729 0.102098 0.485116
-0.495251 0.0233549 0.448164
0.011325 0.470199 -0.499079
0.0559638 0.518938 0.522881
0.474418 0.089899 0.448236
0.0996911 0.476032 0.502676
0.0468355 0.491623 -0.519323
0.0798348 0.497877 0.423243
0.463572 0.00476048 0.498722
-0.466799 0.00253005 0.457487
0.0319111 0.526903 0.494746
0.105472 0.467038 -0.513609
0.0669083 0.564724 0.588939
0.0234035 -0.521509 0.470499
0.492078 0.0285247 0.457826
-0.521327 0.0367419 0.505187
0.0234984 -0.503782 0.495673
0.122287 -0.487041 -0.519853
0.0392425 0.509603 -0.540926
0.100784 -0.505009 -0.471297
0.515621 0.0767511 -0.529079
-0.498856 0.115057 -0.505943
0.0885298 -0.455592 0.501942
0.0106291 0.520293 -0.445914
0.0806327 -0.423886 -0.452652
0.506665 0.0450159 -0.478704
-0.555709 0.10369 -0.470696
0.14238 -0.507106 -0.488014
0.0530721 0.489929 -0.502751
0.496631 0.0220341 -0.480826
-0.459416 0.0986926 -0.517373
0.0233041 -0.546684 -0.417768
-0.472761 0.0824848 -0.426947
0.104313 0.486208 -0.483689
0.0615376 0.432722 0.493671
0.111553 -0.483109 0.524204
0.504149 0.0472088 0.484774
-0.508576 0.0508155 0.471866
0.0660388 0.499355 0.473699
0.0330391 0.526393 -0.481062
0.0948247 -0.514577 0.507466
0.480505 0.0834455 0.4391
0.0408437 0.531582 0.552226
0.0617617 0.526495 -0.583209
0.06491 0.461184 0.506382
0.00427513 -0.498118 0.526524
0.461094 0.0596291 0.516633
-0.472818 0.118484 0.529545
0.0839952 -0.459225 0.512436
0.0710886 -0.507545 -0.499351
0.130075 0.504684 -0.486983
0.1051 -0.50151 -0.523745
0.539838 0.112103 -0.544838
-0.488189 0.0630479 -0.54186
0.0726783 -0.493919 -0.485112
0.063554 -0.438357 -0.532432
0.491579 0.0771019 -0.511078
-0.526812 0.0698848 -0.425206
0.0564674 -0.426646 -0.501907
0.110574 -0.441751 -0.50487
0.0818556 0.439205 0.447701
0.0472238 -0.539787 0.458297
0.126671 0.477417 -0.542257
0.014645 0.531684 0.464052
0.47156 0.0830651 0.489311
0.111885 0.511121 0.476794
0.0656381 0.460137 -0.49609
0.041979 -0.51226 0.475426
0.488088 0.036282 0.45962
0.0358122 0.483634 0.519068
0.0895879 0.493098 -0.469383
0.11574 0.482893 0.5073
0.0521373 -0.492006 0.575462
-0.571392 0.083239 0.45561
0.0289075 0.538342 0.44284
0.0138425 0.496258 -0.464016
0.0789179 0.511002 0.499736
0.120956 -0.50316 0.526922
0.497274 0.108244 0.543794
-0.442131 0.119923 0.51698
0.146002 -0.52346 0.470504
0.0977327 -0.504326 -0.506782
0.106642 0.510018 -0.511168
0.126584 -0.492899 -0.498739
0.536514 0.0923393 -0.484762
-0.481355 0.0700485 -0.511023
0.0530007 -0.499571 -0.49892
0.122397 -0.494598 -0.507549
0.526906 0.122209 -0.453219
-0.520508 0.0927603 -0.52585
0.0880711 -0.458517 0.470059
0.0829612 -0.538765 -0.53729
0.0975333 0.496207 -0.458002
0.0360104 -0.497053 -0.457208
0.54232 0.101305 -0.451232
0.0592069 0.542603 -0.435831
0.47654 0.0361006 -0.443658
0.0556471 -0.474398 -0.446614
0.0801132 -0.470021 -0.531249
-0.537165 0.10388 -0.444349
0.0961656 0.464791 0.509439
-0.530168 0.14002 0.441216
0.0922058 0.518853 -0.485287
0.12052 0.464287 0.471519
0.0916447 0.442111 -0.488834
0.0831268 0.498263 0.446642
0.52704 0.113645 0.474833
-0.463186 0.0116167 0.515199
0.0912493 0.463827 0.54528
0.0873933 0.540179 -0.494001
0.0514254 0.521489 0.452478
0.108344 -0.505858 0.488959
0.524803 0.0971491 0.476149
-0.419623 0.0847289 0.539986
0.0821591 -0.55548 0.501365
0.0966456 -0.542309 -0.537835
0.128987 0.48317 -0.479174
0.119285 -0.508144 -0.550713
0.547774 0.0820848 -0.545227
-0.508674 0.175942 -0.472344
0.124799 -0.479713 -0.505628
0.070713 0.514778 -0.496538
0.136222 -0.474361 -0.407646
0.509632 0.168643 -0.484222
-0.53366 0.138062 -0.555188
0.0911641 -0.541473 -0.491792
0.497651 0.0360013 -0.46676
-0.498265 0.117202 -0.472062
0.07363 0.507866 -0.416165
0.4412 0.119172 -0.517641
-0.518506 0.0627876 -0.416316
0.0666507 0.450077 0.457181
0.523467 0.0692786 0.433137
0.0454173 0.468936 0.458809
0.0652471 -0.488541 0.449988
-0.496917 0.102213 0.441804
0.139581 0.465396 0.487246
0.10007 0.470285 -0.48198
0.103269 0.546122 0.482201
0.0473205 -0.457774 0.468611
0.0790429 0.439872 0.4747
0.147744 0.448363 -0.519378
0.0340985 0.558312 0.453412
0.137086 -0.533517 0.540809
0.49681 0.102064 0.493791
-0.530035 0.0982644 0.450687
0.0941026 0.479929 0.454548
0.0974267 0.510212 -0.491092
0.120811 0.539349 0.504323
0.0962835 -0.51681 0.476825
0.540862 0.111721 0.515011
-0.511783 0.1631 0.518676
0.104835 -0.472731 0.57542
0.0743839 -0.548877 -0.475196
0.112194 0.497862 -0.518027
0.110458 -0.512322 -0.496308
0.457381 0.120691 -0.58865
-0.521004 0.138607 -0.461595
0.121137 -0.5174 0.475207
0.154687 -0.470722 -0.523176
0.0507487 0.507323 -0.504406
0.114131 -0.440806 -0.526192
0.480433 0.0833202 -0.488826
0.127821 -0.484671 0.490306
0.122425 -0.493174 -0.515821
0.123508 -0.497255 -0.501149
0.451143 0.0460131 -0.490187
0.116601 -0.499598 0.518124
0.0329812 0.511521 -0.403081
0.0686567 -0.528433 -0.495134
0.534601 0.104476 -0.467628
-0.528459 0.133814 -0.448228
0.475263 0.115873 -0.474255
0.0698972 0.460442 -0.473403
0.0882957 0.452604 0.505916
0.0782303 -0.485731 0.420128
0.0978727 0.411739 -0.460178
0.0507523 -0.41196 0.434731
0.446866 0.138153 0.440576
0.149163 0.533796 0.534369
0.100389 0.483918 -0.441378
0.113726 0.49945 0.448737
0.415495 0.0694493 0.5055
0.0908721 0.484503 0.475614
0.101739 0.457693 0.481691
0.11124 -0.516231 0.483637
0.50451 0.0781468 0.490682
-0.5217 0.141834 0.451589
0.0683268 0.500349 0.501588
0.128771 0.532858 -0.501456
0.0731107 0.426114 0.504433
0.133206 -0.475451 0.476542
0.518957 0.101447 0.474949
-0.456184 0.0779438 0.52339
0.104047 -0.552286 0.478788
0.124714 -0.462287 -0.560237
0.113662 0.539106 -0.53577
0.135392 -0.487574 -0.505936
0.491622 0.122596 -0.553328
-0.541996 0.108185 -0.541403
0.118132 -0.495675 0.547906
0.122705 -0.48138 -0.498231
0.0996291 0.496212 -0.516512
0.504666 0.0813036 -0.43945
-0.53449 0.151406 -0.473421
0.0962581 -0.481195 -0.508423
0.100057 -0.479711 -0.494594
-0.459308 0.104635 -0.451878
0.0899202 0.532576 -0.457862
0.53117 0.117224 -0.454618
-0.499359 0.170171 -0.455423
0.494213 0.145969 -0.401176
0.0885868 0.4627 0.500449
0.126329 0.508741 0.417176
0.51291 0.135555 0.415981
0.522944 0.101284 0.521973
0.124678 0.470909 0.479412
0.126198 0.509823 -0.494506
0.0660874 -0.49444 0.564669
0.476508 0.172397 0.493271
0.111968 0.497626 0.493319
0.109104 0.450998 -0.548043
0.107807 0.436232 0.451903
0.121584 -0.532464 0.513884
0.521277 0.123023 0.519063
-0.501771 0.130291 0.492034
0.130762 0.49248 0.49861
0.141445 0.573232 -0.491128
0.119878 0.507573 0.510542
0.10898 -0.509212 0.493951
0.525365 0.117671 0.495743
-0.57567 0.0844613 0.485432
0.0928972 -0.524887 0.525778
0.151968 -0.489711 -0.492981
0.183 0.490135 -0.457951
0.0706033 -0.450833 -0.472347
0.472908 0.163224 -0.474501
-0.508066 0.137406 -0.489835
0.127446 -0.500093 0.527103
0.125278 -0.470993 -0.485958
0.0972921 0.495202 -0.439651
0.109696 -0.481672 -0.491511
-0.485027 0.121 -0.499765
0.144434 0.554941 -0.480045
0.166368 -0.515978 -0.54373
0.50475 0.0793714 -0.478387
-0.47672 0.113188 -0.5016
0.136158 -0.437157 -0.507974
0.150653 -0.484105 -0.465413
0.507877 0.136475 -0.419501
-0.495834 0.112037 -0.464344
0.133909 -0.465625 0.483245
0.533646 0.187612 -0.502464
-0.452452 0.153532 -0.504476
0.149234 -0.429086 -0.534166
0.15677 0.457425 0.583367
0.163272 0.513306 -0.458012
0.116328 -0.499526 0.439687
-0.523896 0.161939 0.47461
0.0632132 0.453768 0.537626
0.140051 0.47607 0.426828
0.104357 -0.477377 0.467735
0.461778 0.109604 0.538729
-0.514244 0.127556 0.472496
0.0738918 0.463566 0.452587
0.127648 0.542724 -0.510815
0.0940195 0.578016 0.552915
0.468893 0.124182 0.507643
-0.458709 0.127992 0.488366
0.098588 0.456771 0.42795
0.126958 0.456287 -0.500851
0.143059 0.446247 0.49874
0.125229 -0.49522 0.469937
0.405686 0.157053 0.52251
-0.499696 0.0722558 0.524043
0.152483 -0.499649 0.533708
0.174753 -0.49222 -0.514313
0.169558 0.52378 -0.486937
0.134215 -0.517728 -0.529216
0.501258 0.157011 -0.447902
-0.472268 0.0965994 -0.48793
0.145061 -0.467847 0.462312
0.131852 -0.468087 -0.542391
0.151573 0.505137 -0.494356
0.142282 -0.525876 -0.523384
-0.524909 0.12459 -0.474998
0.13657 -0.49654 0.530685
0.137326 -0.522092 -0.476942
0.125078 0.512291 -0.457484
-0.495682 0.143732 -0.515992
-0.506863 0.118451 -0.444596
0.517995 0.152457 -0.489191
0.184897 0.395182 -0.494447
0.445035 0.195641 0.461418
0.114508 0.489779 0.491355
0.518587 0.194205 0.447192
0.169285 0.507335 0.452577
0.0807606 0.451697 0.486134
0.161839 -0.505371 0.455429
0.469363 0.141294 0.535001
-0.493536 0.155046 0.48994
0.189886 0.517708 0.518875
0.115612 0.459016 0.530215
0.495432 0.18773 0.475586
-0.49196 0.137459 0.494291
0.155209 0.519483 0.449393
0.147278 0.575295 -0.559042
0.0936416 0.493528 0.473705
0.0943642 -0.518451 0.544472
0.467515 0.160595 0.541919
-0.455039 0.131219 0.496779
0.123019 -0.533201 0.532136
0.145229 -0.539471 -0.500106
0.124192 0.504603 -0.484613
0.128184 -0.506099 -0.500054
0.486474 0.209569 -0.534155
-0.486474 0.127487 -0.482356
0.157972 -0.503684 0.505152
0.135175 -0.498429 -0.528596
0.156398 0.533367 -0.521213
0.160021 -0.503195 -0.45221
0.50895 0.130224 -0.540048
0.143175 -0.467101 0.494317
0.145759 -0.504251 -0.496582
0.130743 0.445889 -0.479555
0.163358 -0.493594 -0.561801
-0.540654 0.114265 -0.456393
0.169789 -0.473164 -0.502621
0.0634437 0.509972 -0.470987
0.474232 0.197333 -0.486755
-0.470371 0.1725 -0.448357
0.131075 -0.480006 -0.460184
0.507342 0.180377 -0.430485
0.142024 0.46438 0.506062
0.445979 0.159492 0.420218
0.167071 0.51151 0.458275
0.452181 0.0913561 0.412174
0.126913 0.450532 -0.507464
0.138339 0.498286 0.453398
0.149106 -0.523853 0.431297
0.478348 0.140647 0.468589
0.176169 0.462016 0.51104
0.154955 0.402426 -0.473485
0.131014 0.485947 0.505623
0.151889 -0.527999 0.459154
0.503514 0.17508 0.510931
-0.514304 0.162559 0.537294
0.156131 0.489123 -0.474357
0.110562 0.430512 0.529082
0.142665 -0.540208 0.438215
0.531751 0.126593 0.440852
-0.49487 0.180584 0.455221
0.100723 0.427199 0.542322
0.172466 0.46474 -0.555444
0.170971 0.496532 0.505121
0.182445 -0.520274 0.480181
0.559223 0.171771 0.561956
-0.529076 0.139314 0.510502
0.168644 -0.501463 0.560428
0.132196 -0.492936 -0.542174
0.182653 0.449313 -0.490762
0.178791 -0.51714 -0.559712
0.448325 0.173513 -0.517427
-0.521296 0.0944028 -0.524236
0.126779 -0.537589 0.477211
0.187998 -0.507477 -0.479558
0.142501 0.467909 -0.557398
0.499748 0.125333 -0.475488
-0.517701 0.158881 -0.459546
0.170684 -0.472533 -0.504938
0.164637 0.554666 -0.444805
0.199566 -0.488914 -0.503671
0.195257 -0.493569 0.492027
0.15038 -0.522615 -0.487788
0.165423 0.507167 -0.461183
0.480368 0.131481 -0.447283
0.134483 -0.409729 0.453788
-0.501405 0.196313 -0.487877
-0.502801 0.168513 0.502512
0.212189 0.481831 0.477949
0.126617 -0.465497 0.443953
-0.463605 0.170587 0.482773
0.132367 0.515728 0.487054
0.127405 0.452236 0.454341
0.18664 -0.495312 0.467951
-0.511505 0.135052 0.494299
0.183957 0.490801 0.505699
0.0918931 0.529208 -0.497118
0.203865 0.522975 0.502226
0.151484 -0.478442 0.540586
0.486591 0.18461 0.542436
-0.508386 0.150361 0.431052
0.162256 0.480718 0.499288
0.181241 0.49829 -0.493363
0.148072 0.507303 0.506571
0.200515 -0.520334 0.515127
0.498098 0.142085 0.454383
-0.499122 0.182028 0.48887
0.146559 -0.498314 0.491724
0.131251 -0.497989 -0.499281
0.148824 0.530785 -0.507604
0.191128 -0.47606 -0.527176
0.472517 0.156106 -0.466629
-0.478719 0.169615 -0.485847
0.132757 -0.539853 0.53578
0.151286 -0.473842 -0.481237
0.184264 0.520144 -0.396469
0.0917677 -0.443345 -0.488668
0.531375 0.118837 -0.535169
-0.534101 0.209591 -0.462818
0.22927 -0.492685 0.467733
0.153113 -0.430059 -0.483592
0.155296 -0.516123 -0.443367
-0.492143 0.166277 -0.419631
0.163846 -0.45165 0.475915
0.122791 -0.512313 -0.512938
0.241712 0.492778 -0.476266
0.54079 0.208082 -0.429014
0.463194 0.169955 -0.449561
-0.470208 0.17123 -0.444691
0.181924 -0.465728 0.507947
0.141738 -0.466577 0.441183
-0.490418 0.192179 0.428337
0.170742 0.47801 0.492811
0.166899 0.498181 -0.501772
0.177362 0.473002 0.504201
0.515304 0.146895 0.462977
-0.482251 0.12919 0.503961
0.149897 0.543641 0.513242
0.214342 0.47981 -0.522604
0.221275 -0.472382 0.466141
-0.482324 0.137158 0.50336
0.170077 0.511159 0.482435
0.16909 0.535063 -0.564691
0.145756 0.482494 0.549115
0.176367 -0.551467 0.522545
0.482817 0.264928 0.501841
-0.518506 0.174455 0.502233
0.159103 -0.510501 0.501674
0.188076 -0.502507 -0.523762
0.196058 0.491748 -0.510195
0.184848 -0.549373 -0.464065
0.492091 0.197869 -0.446861
-0.513436 0.177297 -0.456863
0.204751 -0.527352 -0.519621
0.162408 0.552562 -0.499741
0.208727 -0.433883 -0.466062
0.177058 -0.494903 0.505048
0.167567 -0.487395 -0.468483
0.175541 0.516805 -0.492583
0.192693 -0.503416 -0.499591
0.51468 0.179578 -0.497416
-0.507338 0.138507 -0.485856
0.218909 0.448075 -0.442629
0.234925 -0.479065 -0.537663
0.165695 0.436491 -0.511242
0.16774 -0.481716 0.457768
0.506118 0.204297 0.430374
-0.544541 0.173603 0.452522
0.235314 0.410821 -0.528428
0.126341 0.505053 0.54904
0.172811 -0.446404 0.447804
-0.503815 0.174489 0.495966
0.214858 0.516177 -0.52105
0.207451 -0.487455 0.470105
-0.497228 0.128023 0.505884
0.167236 0.511585 0.469224
0.179812 0.498915 0.554536
0.20572 -0.501233 0.47235
0.492362 0.185774 0.540417
-0.480548 0.188689 0.499697
0.157265 0.550391 0.493025
0.157865 0.48545 -0.539263
0.203876 0.467716 0.460847
0.147257 -0.426813 0.514644
0.497149 0.137413 0.483188
-0.462431 0.181425 0.488362
0.216815 -0.524683 0.545008
0.198626 -0.454015 -0.453055
0.244972 0.500365 -0.476388
0.181292 -0.524958 -0.516852
0.478099 0.126042 -0.525487
-0.475874 0.160046 -0.427234
0.216765 -0.525367 0.507225
0.146927 -0.467236 -0.503547
0.165816 0.552434 -0.485918
0.181296 -0.467181 -0.450034
0.506176 0.172099 -0.473825
-0.541845 0.17914 -0.470576
0.20384 0.503213 -0.533948
0.51958 0.211443 -0.519763
0.140956 -0.509733 -0.465974
-0.493635 0.183126 -0.518995
0.196442 -0.525799 -0.513875
0.509212 0.189033 -0.403629
0.221239 0.420494 -0.558521
0.528846 0.200176 0.442981
0.200502 0.456424 0.423933
0.167661 -0.467105 0.474293
0.154013 0.501532 0.542837
0.197684 0.463427 -0.497824
0.494332 0.230158 0.465262
-0.509306 0.25555 0.441158
0.17911 0.463625 -0.505484
0.184462 -0.479984 0.515628
0.481569 0.181188 0.460646
-0.492294 0.220439 0.511868
0.168386 0.515947 0.496424
0.154565 0.498132 -0.454245
0.193856 0.531958 0.494576
0.141527 -0.495248 0.466887
0.510838 0.198088 0.51336
-0.562953 0.239681 0.490275
0.152828 0.471643 0.496702
0.200783 0.405663 -0.504853
0.194026 0.491937 0.505817
0.151574 -0.567756 0.509025
0.454204 0.167129 0.502142
-0.504958 0.172036 0.562372
0.20118 -0.471639 0.503731
0.23821 -0.551794 -0.527142
0.151356 0.413103 -0.479486
0.187476 -0.519229 -0.47577
0.500428 0.187223 -0.464667
-0.469794 0.212994 -0.510425
0.246434 -0.517255 0.462815
0.16965 -0.536716 -0.50185
0.16261 0.523679 -0.530529
0.526502 0.203539 -0.511617
-0.462261 0.21954 -0.549362
0.21343 -0.470172 -0.499111
0.168857 0.507523 -0.481932
0.155199 -0.530054 -0.554786
0.458582 0.162407 -0.447713
-0.457389 0.216455 -0.509032
0.197661 -0.472411 0.518295
0.231589 0.494572 -0.449757
-0.51646 0.183554 -0.498966
0.160928 -0.476939 0.544735
0.175716 -0.512428 -0.479677
0.508095 0.170352 -0.455875
-0.497326 0.200611 -0.432249
0.180866 0.492789 -0.45106
0.263459 -0.503351 -0.493603
-0.5263 0.175803 0.437561
0.234413 0.504882 0.461971
0.502254 0.163356 0.449633
0.173614 0.47976 0.529324
0.214758 0.441954 0.444229
0.218409 -0.483733 0.426868
-0.50618 0.180025 0.481605
0.220641 0.491004 0.593221
0.21802 0.44883 -0.513793
0.141068 0.472449 0.48134
0.149833 -0.505129 0.508019
0.540595 0.176009 0.469715
-0.498608 0.209482 0.44336
0.211234 0.541897 0.501691
0.212575 0.440859 -0.538805
0.166741 0.509152 0.443585
0.240314 -0.463318 0.480216
-0.526221 0.160297 0.479872
0.16586 0.512187 0.500435
0.198968 0.507896 -0.520818
0.139549 0.493211 0.464896
0.195884 -0.531624 0.5023
0.518787 0.207844 0.517774
-0.538065 0.20059 0.506495
0.20432 -0.455581 0.533752
0.195503 -0.468322 -0.469545
0.259876 0.506862 -0.510851
0.22129 -0.492226 -0.459135
0.476684 0.243422 -0.519639
-0.507512 0.232728 -0.576918
0.240694 -0.46808 0.479107
0.246025 -0.505443 -0.526672
0.230957 0.486605 -0.48776
0.208356 -0.531361 -0.424124
-0.505548 0.23439 -0.493429
0.19118 -0.520486 -0.507431
0.259574 0.527469 -0.468579
0.178934 -0.486044 -0.422076
0.470346 0.169398 -0.503884
-0.451076 0.221639 -0.517088
0.19959 -0.48368 -0.51489
0.219983 0.511331 -0.432229
0.21336 -0.517281 -0.471431
0.51828 0.192677 -0.453659
-0.458683 0.22594 -0.486467
0.202631 -0.471544 0.476324
0.16902 -0.461344 -0.547433
0.200337 0.527142 -0.472133
0.218559 -0.513125 -0.465956
-0.484275 0.210094 -0.48315
0.203045 0.466317 0.513446
0.199881 0.505803 0.450109
0.162393 -0.460952 0.426103
0.210147 0.448452 -0.519272
0.145515 0.510121 0.469536
0.413341 0.211689 0.427399
-0.50771 0.180429 0.489149
0.191066 0.439226 0.478584
0.229705 0.473756 -0.504159
0.268577 -0.496644 0.500159
0.52894 0.201905 0.454048
-0.477097 0.194899 0.46083
0.226287 0.460086 0.513366
0.182254 0.477801 -0.493791
0.212745 0.537041 0.456585
0.194119 -0.498533 0.508936
0.429181 0.2002 0.435009
-0.506162 0.263685 0.474258
0.173033 0.50281 0.50686
0.1197 0.492536 -0.452592
0.136668 0.495843 0.526835
0.192693 -0.527401 0.415248
0.183535 0.510638 0.477959
0.200307 0.514488 -0.46667
0.222556 0.522564 0.541241
0.224141 -0.515882 0.468982
0.516441 0.20769 0.446167
-0.488888 0.160945 0.468085
0.212349 -0.535087 0.486224
0.21131 -0.529304 -0.497151
0.208542 0.51064 -0.481375
0.22205 -0.437225 -0.484457
0.528783 0.221545 -0.49306
-0.492978 0.252501 -0.477523
0.251944 -0.47572 -0.504232
0.216253 0.488336 -0.467468
0.219984 -0.558157 -0.489099
0.479629 0.194317 -0.507517
-0.533488 0.190224 -0.50682
0.261802 -0.474763 0.474504
0.204675 -0.466081 -0.538594
0.175614 0.449341 -0.51648
0.203812 -0.515145 -0.521483
0.516869 0.215454 -0.45804
-0.453873 0.230938 -0.532354
0.251399 -0.457346 -0.510146
0.190538 0.460339 -0.461902
0.467722 0.267686 -0.548191
0.15891 -0.46357 0.515228
0.197744 -0.426644 -0.523394
0.192755 -0.499185 -0.468829
-0.517692 0.20955 -0.524434
0.192598 -0.42633 0.522333
-0.484849 0.204479 -0.442855
0.221171 0.503079 0.411986
0.274306 -0.545235 0.475617
0.502606 0.20391 0.425988
0.189397 0.499407 0.440127
-0.485282 0.197676 0.483078
0.241 0.47568 0.542669
0.210095 0.469542 -0.504126
0.172686 0.510407 0.423728
0.194097 -0.536414 0.438231
0.179821 0.458073 0.498452
0.201021 0.472502 -0.495223
0.213617 -0.497465 0.45981
0.451049 0.208443 0.442786
-0.54409 0.218956 0.43102
0.223913 0.433755 0.484516
0.231527 0.462168 -0.534911
0.188988 0.529577 0.539078
0.197223 -0.484671 0.48229
0.539703 0.154964 0.510568
-0.486287 0.172793 0.516461
0.233576 0.543139 0.536555
0.240015 0.480733 -0.46596
0.201233 0.516962 0.512557
0.213745 -0.467567 0.508815
0.482941 0.19147 0.523222
-0.514466 0.152521 0.50891
0.198105 -0.519444 0.452435
0.23015 -0.533094 -0.508873
0.148749 0.497223 -0.479946
0.256596 -0.50412 -0.475578
0.5531 0.213907 -0.53171
-0.46884 0.209922 -0.450011
0.26976 -0.479417 0.474852
0.162482 -0.437564 -0.470812
0.233953 0.504815 -0.506459
0.209328 -0.528423 -0.487966
-0.463985 0.225509 -0.48127
0.22924 -0.46672 0.492053
0.206518 -0.399664 -0.501162
0.200973 0.497744 -0.458144
0.286305 -0.458356 -0.475244
-0.496668 0.233218 -0.451127
0.233789 -0.53876 0.43977
0.232947 -0.475809 -0.553894
0.248364 0.50116 -0.487345
0.514771 0.230643 -0.513115
-0.573927 0.177211 -0.490257
0.227373 -0.448836 0.490159
0.21415 -0.518366 -0.499777
-0.481616 0.233589 -0.482088
0.24222 -0.397365 0.517318
0.510031 0.251858 -0.425284
-0.513155 0.208143 -0.372623
0.217344 0.467961 0.455403
0.236854 -0.506316 0.457129
0.297808 0.466476 0.460005
0.250992 0.476994 -0.470199
0.264408 0.509229 0.479811
0.540762 0.206301 0.440461
0.243859 0.504347 0.522887
0.252894 0.446437 -0.507585
0.218962 0.500017 0.485114
0.192359 -0.534661 0.432411
-0.511067 0.24445 0.47793
0.25194 0.427585 0.463008
0.200816 0.498847 -0.520533
0.225846 0.560377 0.485653
0.238291 -0.498225 0.51695
0.462737 0.221037 0.484534
-0.521591 0.253553 0.468689
0.220299 0.482222 0.427149
0.283908 -0.488525 0.52203
0.480118 0.227744 0.45842
-0.507087 0.162131 0.475261
0.218732 0.510846 0.557919
0.265186 0.500528 0.481815
-0.448964 0.229556 0.498752
0.208628 0.494117 0.493932
0.230043 0.495578 -0.474308
0.255864 0.459785 0.52981
0.184407 -0.45598 0.503715
0.526925 0.248269 0.501261
-0.48905 0.226649 0.493387
0.210195 -0.540173 0.48334
0.209604 -0.528729 -0.493729
0.285694 0.474538 -0.493472
0.218267 -0.534686 -0.526409
0.493683 0.208565 -0.463189
-0.52156 0.22455 -0.547441
0.219809 -0.534214 -0.433496
0.164143 0.511551 -0.492803
0.270461 -0.461517 0.578886
0.22332 -0.447942 -0.544045
0.21126 0.549978 -0.463749
0.236192 -0.479548 -0.464726
-0.524869 0.223852 -0.477006
0.271164 -0.471457 0.468129
0.209477 -0.496085 -0.539252
0.288402 0.560771 -0.504927
0.215378 -0.446384 -0.486435
0.519093 0.262841 -0.427625
0.251034 -0.434981 0.4365
0.218222 -0.416248 -0.516847
-0.521586 0.24748 -0.474036
0.288864 -0.480942 0.548041
0.197014 0.512258 -0.449553
0.262435 -0.505552 -0.364867
0.229753 -0.489023 -0.464697
0.225006 0.395611 0.492235
0.235405 0.426086 -0.546537
0.222248 0.43438 0.50394
0.219928 0.412982 -0.499056
0.2208 0.513548 0.476005
-0.51001 0.292374 0.506395
0.243475 -0.509175 0.477124
0.49042 0.17789 0.450606
-0.482698 0.224383 0.443579
0.270011 0.469587 0.507886
0.280263 -0.475967 0.48538
0.516432 0.27991 0.491292
0.232085 0.552778 0.525274
0.226207 0.473437 -0.493218
0.210276 0.486616 0.467071
0.234991 -0.483315 0.497712
0.465094 0.212912 0.504792
-0.512525 0.249139 0.511901
0.185253 0.526269 0.513684
0.23686 0.506298 -0.45745
0.204739 0.51679 0.493707
0.195657 -0.497389 0.465982
0.554265 0.218076 0.512538
-0.476984 0.222217 0.474491
0.231031 0.479475 0.489675
0.236745 0.46772 -0.462098
0.225274 0.546208 0.510106
0.185288 -0.489639 0.495933
0.48165 0.231253 0.454361
-0.502255 0.228301 0.525007
0.239912 -0.514189 0.502614
0.224716 -0.467316 -0.502029
0.29401 0.504852 -0.51509
0.244149 -0.488502 -0.512828
0.520828 0.276444 -0.514912
-0.498113 0.217451 -0.536182
0.241632 -0.488117 -0.53173
0.279655 -0.550615 -0.486806
0.438635 0.234393 -0.492536
-0.516785 0.215964 -0.445246
0.263571 -0.464495 0.433875
0.273176 0.516062 -0.506812
0.496761 0.204109 -0.458119
-0.542013 0.25228 -0.488218
0.248996 -0.51825 0.482009
0.190456 0.47687 -0.450663
0.245712 -0.472115 -0.473502
0.522998 0.293317 -0.523094
-0.49954 0.203489 -0.48452
0.290994 0.468395 -0.411903
-0.480302 0.24146 -0.467672
0.223056 -0.39951 0.497859
0.277131 -0.462171 -0.546745
0.304353 -0.45722 -0.468154
0.488375 0.196059 -0.446749
-0.448793 0.212685 -0.459898
0.265713 -0.519854 0.455019
0.275095 0.438544 -0.444854
0.248046 0.464539 0.429473
0.486671 0.258181 0.460654
0.205367 0.476769 -0.475065
0.252234 0.438637 0.358268
-0.475319 0.244937 0.488776
0.182444 0.516101 0.485105
0.239949 0.448456 -0.51672
0.235494 0.518505 0.503069
0.241752 -0.534002 0.423249
0.280094 -0.499934 0.487012
0.236711 0.508187 0.452818
0.266278 0.486511 -0.541634
0.291411 0.4606 0.565943
0.501529 0.210284 0.539543
-0.52249 0.288948 0.492345
0.22767 0.462958 0.540695
0.276006 0.474534 -0.517286
0.238167 0.509007 0.514948
0.475591 0.185836 0.429929
-0.490567 0.247649 0.486615
0.263368 0.487788 0.533498
0.251768 0.457848 -0.468841
0.255832 0.535574 0.505726
0.222446 -0.534757 0.485671
0.481302 0.28529 0.479513
-0.491407 0.279682 0.501732
0.271325 -0.456716 0.505112
0.221336 -0.512948 -0.522645
0.274289 0.472747 -0.505569
0.308283 -0.538868 -0.46878
0.518508 0.259685 -0.555787
-0.53525 0.302914 -0.521372
0.202366 -0.433512 0.541047
0.265207 -0.485282 -0.491155
0.291296 0.541215 -0.52123
0.190158 -0.445386 -0.513893
0.465798 0.257709 -0.449011
-0.511511 0.279086 -0.485423
0.256735 -0.446787 0.473938
0.222266 -0.454095 -0.521408
0.257478 0.536458 -0.418027
-0.497096 0.285084 -0.516015
0.280812 -0.453742 0.497706
0.255222 -0.501786 -0.533416
0.270284 0.542758 -0.449823
0.292283 -0.531542 -0.478538
0.490896 0.295009 -0.408913
0.290228 -0.402186 -0.448189
0.22863 -0.475215 -0.491712
0.300399 -0.45628 0.493699
0.2233 -0.473148 -0.518486
0.25288 -0.485724 -0.468278
-0.522938 0.217026 -0.434837
0.260977 -0.506885 -0.426213
0.23415 -0.376104 0.495738
0.268136 -0.47439 -0.378821
-0.505771 0.245266 0.407021
-0.478255 0.27066 0.427332
0.267195 0.413684 -0.511679
0.245069 0.498599 0.410885
-0.434773 0.248738 0.45248
0.299231 0.51336 0.490049
0.516093 0.235813 0.429634
0.272004 0.413708 0.506462
0.579019 0.326958 0.46177
-0.544439 0.263255 0.495151
0.266686 0.538177 -0.496484
0.280577 0.470319 0.522984
0.249658 -0.482132 0.469084
0.496261 0.275835 0.455397
0.30018 0.435512 0.483002
0.274759 0.472951 -0.45927
0.295764 0.505967 0.482606
0.528086 0.251382 0.4089
-0.486128 0.281064 0.398032
0.261585 0.473541 0.524879
0.234695 0.447654 -0.514799
0.238016 0.527802 0.535379
0.269917 -0.467074 0.47636
0.537377 0.254996 0.496135
-0.542596 0.265976 0.450657
0.239369 0.503268 0.508051
0.217359 0.47307 -0.531879
0.263037 0.532553 0.499678
0.285618 -0.473929 0.532096
0.478448 0.245288 0.506013
-0.452724 0.264921 0.469768
0.287203 -0.472195 0.585034
0.258977 -0.543563 -0.526867
0.252785 0.533357 -0.53571
0.248138 -0.514322 -0.456974
0.51231 0.216161 -0.490871
-0.514928 0.248891 -0.504592
0.24033 -0.489151 0.516833
0.268242 -0.492608 -0.473176
0.327283 0.490166 -0.508143
0.275707 -0.43702 -0.507303
0.531863 0.319762 -0.471536
0.219107 -0.455429 -0.45393
0.268818 0.477565 -0.534394
0.244558 -0.477451 -0.468243
0.516379 0.301691 -0.455412
-0.511033 0.272938 -0.49787
0.229529 -0.528277 0.501622
0.220569 0.510918 -0.477052
0.268022 -0.469415 -0.487116
0.47784 0.282245 -0.463543
0.493187 0.222475 -0.456898
0.290626 -0.40415 -0.538215
0.267001 0.459757 -0.49641
0.257545 -0.526654 -0.430184
0.553005 0.229439 -0.424702
0.303304 -0.421878 -0.502835
0.496359 0.24854 -0.422311
-0.513514 0.251417 -0.410854
-0.557604 0.207909 -0.400673
0.248083 -0.36822 0.500194
0.24329 0.492048 0.457971
0.270337 0.38159 0.495976
0.280001 0.429028 -0.525204
0.445974 0.287795 0.397159
-0.533938 0.307889 0.418328
0.29941 0.489286 0.534323
0.252596 0.441893 -0.55161
0.296426 -0.502924 0.414628
0.477032 0.302326 0.416788
-0.485692 0.268719 0.467682
0.276547 0.411582 -0.5095
0.333208 0.556494 0.510656
0.286378 -0.454274 0.510802
0.291747 0.466655 0.494603
0.285116 0.498531 -0.452306
0.307866 0.455399 0.473202
0.539761 0.298735 0.539406
0.273541 0.493588 0.497824
0.260242 0.505643 -0.499065
0.237467 0.52114 0.476062
0.275664 -0.465893 0.474642
-0.559613 0.291765 0.528777
0.235007 0.499808 0.555803
0.299592 0.394517 -0.470152
0.32078 0.479245 0.497535
0.256167 -0.558565 0.53334
0.49185 0.262153 0.51116
-0.485287 0.305276 0.527227
0.224714 -0.503358 0.50241
0.23552 -0.451464 -0.46927
0.231695 0.500613 -0.505234
0.318374 -0.498069 -0.443753
0.455457 0.236407 -0.473041
-0.529241 0.259506 -0.502447
0.281046 -0.47411 0.425663
0.226319 -0.505992 -0.491505
0.266697 0.497861 -0.480837
0.347338 -0.478529 -0.50119
0.510868 0.253853 -0.466671
-0.47807 0.30528 -0.527012
0.270302 -0.483818 0.446548
0.254561 -0.561606 -0.494219
0.261716 -0.516028 -0.490452
0.521163 0.311774 -0.449284
-0.520129 0.285345 -0.473177
0.313035 -0.427656 0.476398
0.2752 -0.442829 -0.515984
0.266449 0.424694 -0.474521
0.345946 -0.474799 -0.485455
0.492644 0.279338 -0.467894
0.27174 -0.487366 0.490683
0.289184 -0.430394 -0.515751
0.298037 0.498449 -0.502711
0.285902 -0.434804 -0.456212
0.265893 -0.445878 -0.495884
0.31386 0.504362 -0.440748
0.281781 -0.575494 -0.408323
0.452274 0.270657 -0.504966
-0.46772 0.293905 -0.475972
0.563996 0.229218 -0.34457
0.482619 0.302976 -0.403591
0.280136 0.40737 -0.497572
0.295485 0.426647 -0.501959
0.271167 0.466094 0.479999
0.25015 0.486565 0.418097
0.260158 -0.505229 0.477451
0.276934 -0.442465 0.483525
0.229204 0.416216 0.497249
0.214495 0.502534 -0.507319
0.281022 0.508362 0.439848
0.520593 0.28177 0.472068
-0.469552 0.261648 0.482213
0.300197 0.510701 0.478002
0.276756 0.504676 -0.495471
0.294568 0.530153 0.47177
0.235718 -0.487507 0.488551
0.438818 0.287083 0.442421
-0.505334 0.262027 0.438201
0.292548 0.442707 0.501239
0.221641 0.524926 0.469327
0.245605 -0.537491 0.502977
0.484213 0.317693 0.531633
-0.518199 0.294828 0.428563
0.316709 0.427081 0.540226
0.295796 0.494685 -0.495422
0.340366 0.522564 0.481574
0.301058 -0.471527 0.463895
0.49893 0.277557 0.451325
-0.461395 0.248614 0.490835
0.267739 -0.522224 0.502607
0.24415 -0.460471 -0.53402
0.289345 0.482549 -0.456786
0.321539 -0.477972 -0.465017
0.48408 0.276269 -0.505281
-0.511799 0.321017 -0.486275
0.287386 -0.498663 0.551173
0.272459 -0.442777 -0.513858
0.360155 -0.495997 -0.437516
0.518461 0.226878 -0.510503
0.310792 -0.452688 0.490408
0.287891 -0.465383 -0.486099
0.294453 0.460736 -0.505819
0.283397 -0.478835 -0.514412
0.458847 0.289314 -0.452925
-0.525312 0.30622 -0.554075
0.287403 -0.44581 0.498856
0.304358 -0.499694 -0.588292
0.307435 0.550809 -0.539439
0.263977 -0.43445 -0.499253
0.522623 0.292838 -0.443436
-0.515395 0.311307 -0.443152
0.31101 -0.452378 0.446514
0.319974 0.474723 -0.484735
0.268401 -0.513351 -0.454682
0.256683 0.516974 -0.453546
