ply
format ascii 1.0
comment sampling resolution: 0.01
comment noise level: 0.01
comment Created by Open3D
element vertex 1685
property double x
property double y
property double z
end_header
-0.312336 -0.504539 -0.460351
-0.310498 0.501542 -0.464407
-0.313404 -0.513532 -0.463702
-0.323451 0.458171 -0.506166
-0.509659 -0.319503 0.454073
-0.297611 0.470518 -0.493947
0.49852 -0.313485 0.461095
-0.500676 -0.303771 0.457607
-0.293273 0.501773 0.486289
-0.289126 0.487458 -0.498948
-0.309288 0.493863 0.505136
-0.314576 -0.501052 0.489356
0.513923 -0.306292 0.516642
-0.485976 -0.290584 0.488592
-0.328131 0.489107 0.510722
-0.313622 0.514474 -0.503697
-0.318819 0.480561 0.514246
-0.298986 -0.519971 0.482598
0.506654 -0.303951 0.513052
-0.497383 -0.312734 0.502679
-0.295956 -0.49026 0.506221
-0.314566 -0.509031 -0.50201
-0.313164 0.522609 -0.511458
-0.289019 -0.514995 -0.504349
0.47908 -0.280413 -0.503137
-0.488884 -0.308721 -0.505503
-0.305821 -0.501377 0.513248
-0.29106 0.4903 -0.503343
0.49251 -0.297272 -0.491513
-0.495766 -0.289685 -0.486324
-0.292811 -0.47265 0.48875
0.483339 -0.305092 -0.488293
-0.288637 0.509975 -0.453167
-0.495178 -0.28666 -0.474139
-0.29755 0.457234 -0.502582
-0.293698 0.494887 0.455205
0.497907 -0.284233 0.455109
-0.28749 0.451405 -0.495932
-0.313394 -0.498775 0.456976
0.498317 -0.290435 0.448157
-0.306817 0.492124 0.491809
0.508323 -0.29827 0.482226
-0.490348 -0.294247 0.479293
-0.292896 0.502594 0.493836
-0.30556 -0.51277 0.485246
0.498943 -0.305197 0.48692
-0.503775 -0.3126 0.510433
-0.292226 0.51039 0.507841
-0.290234 0.48952 -0.497567
-0.294735 0.490971 0.498479
-0.290101 -0.506021 0.490753
0.512247 -0.289916 0.496063
-0.511069 -0.30049 0.495713
-0.273403 -0.489866 0.495278
-0.299976 -0.508743 -0.486386
-0.298008 0.504814 -0.4995
-0.283137 -0.484715 -0.502558
0.483047 -0.286642 -0.503977
-0.508418 -0.29183 -0.498225
-0.306188 -0.501926 0.503865
-0.280433 -0.483994 -0.517658
-0.283952 0.480328 -0.490273
-0.28827 -0.502856 -0.485214
-0.493241 -0.268786 -0.48975
-0.275354 0.499931 -0.493922
0.485119 -0.28207 -0.489909
-0.287372 -0.479063 0.517157
-0.280262 0.4996 -0.45642
-0.268204 -0.465651 0.506594
0.510761 -0.299032 -0.463857
-0.288153 -0.518287 0.446614
-0.283601 0.508428 0.453205
0.502362 -0.288969 0.466463
-0.498222 -0.294713 0.481259
-0.300881 0.480705 0.501398
-0.287833 0.48807 -0.508238
-0.298022 0.497762 0.502157
-0.288931 -0.505889 0.490063
0.516986 -0.291573 0.490875
-0.509732 -0.284482 0.481055
-0.299435 0.501534 0.501308
-0.272541 0.484423 -0.508185
-0.286959 0.509816 0.488968
-0.284314 -0.4872 0.494731
0.473596 -0.298254 0.509292
-0.512895 -0.277723 0.498834
-0.267973 -0.503879 0.507551
-0.281078 -0.514438 -0.509838
-0.26183 0.495821 -0.511112
-0.278235 -0.495405 -0.493171
0.494432 -0.291897 -0.487523
-0.496396 -0.28559 -0.49804
-0.259548 -0.498341 0.503983
-0.294998 -0.483808 -0.502024
-0.253303 0.503151 -0.484167
0.506854 -0.256444 -0.502362
-0.507119 -0.279226 -0.491483
-0.292981 -0.476173 0.498584
0.504067 -0.284708 -0.472098
-0.519848 -0.283442 -0.488865
-0.269863 0.506168 0.447534
-0.266579 -0.497387 0.455116
-0.281069 0.499229 0.474822
-0.26497 -0.508704 0.486765
-0.496815 -0.254993 0.477592
-0.275022 0.477069 -0.493739
-0.308508 0.493023 0.490813
-0.28223 -0.499149 0.500166
-0.503523 -0.300294 0.478811
-0.271855 0.509542 0.506798
-0.277099 0.5016 -0.528913
-0.279586 0.521284 0.498491
-0.268635 -0.513993 0.484644
0.509284 -0.27246 0.518006
-0.511636 -0.273082 0.507182
-0.266526 -0.530864 0.518784
-0.273609 -0.50193 -0.485061
-0.26761 0.500762 -0.498544
-0.26751 -0.501452 -0.492212
0.508913 -0.271989 -0.508993
-0.506832 -0.267866 -0.489512
-0.277684 -0.475865 0.519935
-0.253051 0.503854 -0.477092
-0.279888 -0.501133 -0.456732
0.493007 -0.285765 -0.486953
-0.496436 -0.264178 -0.492908
-0.290689 -0.482529 -0.507757
-0.283727 0.512092 -0.474603
0.496141 -0.269885 -0.482003
-0.269669 -0.447228 -0.512787
-0.488816 -0.262887 -0.463225
0.500391 -0.257118 0.459182
-0.261665 0.474592 0.506713
-0.270934 0.495588 0.460743
-0.269588 -0.492443 0.457865
-0.264722 0.488732 0.51135
-0.255208 0.496185 0.468816
-0.283724 -0.480289 0.491161
0.491773 -0.268175 0.483192
-0.511241 -0.263545 0.495406
-0.272964 0.485738 0.501407
-0.261922 0.502764 0.486593
0.499559 -0.260641 0.485998
-0.485003 -0.260278 0.488534
-0.276135 0.502929 0.491425
-0.26532 0.509959 -0.480941
-0.287009 0.498027 0.502798
-0.262298 -0.511409 0.508643
0.505422 -0.258111 0.507735
-0.515402 -0.256522 0.51748
-0.242597 -0.511074 0.522404
-0.269081 -0.487815 -0.499596
-0.240955 0.494798 -0.5121
-0.26419 -0.500745 -0.497749
0.499848 -0.262792 -0.517227
-0.50018 -0.256733 -0.50862
-0.264357 -0.495483 0.513748
-0.234219 -0.488241 -0.502527
-0.262762 0.482861 -0.485212
-0.268732 -0.509981 -0.488944
-0.482575 -0.26593 -0.485324
-0.245503 -0.472203 0.505127
-0.246725 0.499513 -0.500537
-0.238817 -0.49182 -0.492929
0.506259 -0.263998 -0.469665
-0.249016 -0.495212 -0.49747
-0.25904 -0.509716 -0.469733
-0.249763 0.501922 0.490911
-0.26138 0.495365 0.469742
0.486918 -0.264451 0.462651
-0.48523 -0.253603 0.472653
-0.258523 0.493691 0.49031
-0.252951 0.498512 -0.512815
-0.257821 0.51358 0.491954
-0.269023 -0.496061 0.493746
0.508906 -0.260512 0.488893
-0.507989 -0.256743 0.486387
-0.249045 0.520303 0.492572
-0.246043 0.50546 -0.499554
-0.24531 0.494824 0.499769
-0.25432 -0.504028 0.499435
0.494301 -0.270091 0.521274
-0.502685 -0.259242 0.509336
-0.26381 -0.50766 0.487201
-0.255965 -0.50927 -0.50377
-0.250243 0.498923 -0.496161
-0.247318 -0.49948 -0.500161
0.502877 -0.258848 -0.515756
-0.51789 -0.241945 -0.492875
-0.234308 -0.466782 0.514531
-0.257835 0.516965 -0.498635
0.497152 -0.24543 -0.517415
-0.250503 -0.486048 0.48364
-0.249554 0.515635 -0.477595
-0.260301 -0.499949 -0.465676
0.487156 -0.257532 -0.478854
-0.24153 0.455022 -0.497027
-0.243708 -0.497617 0.495092
-0.483346 -0.24631 0.471927
-0.258052 0.480998 0.506809
-0.239058 0.482799 -0.507088
-0.237426 0.510994 0.49682
-0.255471 -0.492039 0.491752
0.502546 -0.234118 0.490406
-0.245544 0.49195 0.479134
-0.248282 0.510084 -0.493333
-0.228083 0.499741 0.498268
-0.257567 -0.505632 0.517395
0.5051 -0.247813 0.502503
-0.479768 -0.232741 0.503895
-0.241799 -0.502662 0.501048
-0.233948 -0.502806 -0.498879
-0.224186 0.492641 -0.487787
-0.233811 -0.51099 -0.503826
0.493258 -0.222787 -0.501414
-0.501659 -0.23293 -0.498024
-0.226479 -0.474965 0.507478
-0.216505 -0.500893 -0.490021
-0.23371 0.506218 -0.484776
-0.221077 -0.502695 -0.487356
0.504151 -0.233013 -0.482791
-0.234798 -0.475205 0.491336
-0.251723 0.519866 -0.495889
-0.256994 -0.495278 -0.46579
-0.488663 -0.250206 -0.489366
-0.230193 -0.472322 -0.487108
-0.236266 -0.483499 -0.469839
-0.235835 0.473208 0.49598
-0.225103 -0.503198 0.494185
0.498376 -0.250151 0.482661
-0.256001 0.478228 -0.483629
0.502431 -0.233261 0.484867
-0.479817 -0.246748 0.49479
-0.249722 0.511422 0.498719
-0.24126 0.499731 -0.49312
-0.21789 0.514078 0.496036
-0.243959 -0.486419 0.492109
0.500635 -0.243258 0.508737
-0.494059 -0.226607 0.5092
-0.238765 -0.5151 0.501418
-0.238851 -0.500104 -0.509327
-0.233215 0.506568 -0.507037
-0.219945 -0.514792 -0.498069
0.506264 -0.223508 -0.486452
-0.515384 -0.203709 -0.483319
-0.241704 -0.488338 -0.482114
-0.220452 0.492744 -0.486491
0.502381 -0.220389 -0.491363
-0.505063 -0.223704 -0.499691
-0.226685 0.485098 -0.498586
-0.209614 -0.507129 -0.478514
0.510143 -0.218673 -0.480465
-0.501719 -0.218643 -0.476195
-0.227091 -0.474858 0.513008
-0.217777 -0.498474 0.477146
-0.227397 0.472415 0.47138
-0.219668 0.492535 -0.507575
-0.231762 0.491448 0.489195
0.509336 -0.224975 0.47299
-0.509056 -0.230455 0.492319
-0.234375 0.504231 -0.499773
-0.231041 0.486473 0.486253
-0.235633 -0.51358 0.488004
0.512573 -0.223176 0.481953
-0.502033 -0.233237 0.500759
-0.229262 0.522514 0.508814
-0.22226 0.498451 -0.5073
-0.231873 0.487967 0.504287
-0.217292 -0.484385 0.49748
0.509809 -0.233831 0.505416
-0.499335 -0.221243 0.490732
-0.210523 -0.488318 0.506371
-0.214389 -0.498435 -0.494919
-0.224918 0.509712 -0.503891
-0.229098 -0.502178 -0.489131
0.499019 -0.219688 -0.496019
-0.496477 -0.229096 -0.477506
-0.208225 -0.489432 0.506109
-0.228474 0.502459 -0.498485
-0.232227 -0.4918 -0.486613
0.514309 -0.220256 -0.48566
-0.212161 -0.471235 0.503767
-0.223226 -0.505269 -0.476067
0.498389 -0.22106 -0.501526
-0.219243 -0.514536 -0.466447
-0.21132 0.483498 0.457824
-0.222667 0.462604 -0.497027
-0.201237 0.509112 0.483557
0.502386 -0.219193 0.484252
-0.210648 0.481327 0.48946
-0.222098 0.48874 -0.499143
-0.212704 0.498159 0.49015
-0.203174 -0.509546 0.495739
0.519395 -0.206684 0.493878
-0.505183 -0.217939 0.47549
-0.228284 0.500403 0.506745
-0.210993 0.49847 -0.487527
-0.205271 0.47849 0.49206
-0.220905 -0.501805 0.501999
0.511863 -0.217928 0.496748
-0.505475 -0.208837 0.488904
-0.219447 -0.514276 0.480873
-0.201983 -0.497126 -0.50484
-0.220849 0.485831 -0.513199
-0.212989 -0.502194 -0.515369
0.504284 -0.205209 -0.507693
-0.501758 -0.216379 -0.490577
-0.226064 -0.51841 -0.47643
-0.505537 -0.223053 -0.492236
0.498622 -0.218567 -0.501799
-0.508483 -0.197196 -0.483364
-0.209453 -0.46903 0.479773
-0.196683 0.494038 -0.474796
-0.503199 -0.210061 -0.466028
0.505402 -0.220122 0.458951
-0.208217 0.459445 0.505695
-0.19296 0.487517 -0.482168
-0.216005 0.491821 0.467978
-0.216439 -0.494397 0.478435
0.483836 -0.206183 0.467025
-0.217152 0.490603 0.487359
-0.206976 0.502457 -0.497961
-0.212466 0.493054 0.498122
-0.205003 -0.494617 0.487892
-0.500615 -0.19672 0.481871
-0.212312 0.497708 0.508414
-0.198197 0.492066 -0.499159
-0.206714 0.501237 0.487975
-0.222469 -0.492497 0.494036
0.493938 -0.21196 0.494611
-0.505156 -0.192066 0.502043
-0.185622 -0.49749 0.490028
-0.211264 -0.498819 -0.527679
-0.178678 0.473089 -0.493804
-0.186674 -0.497006 -0.492683
0.519588 -0.190684 -0.497825
-0.496739 -0.188698 -0.480916
-0.195011 -0.47628 0.481592
-0.191786 0.504301 -0.489881
-0.209174 -0.501448 -0.491817
0.486003 -0.176273 -0.502454
-0.49925 -0.198605 -0.510155
0.499279 -0.20079 0.458549
-0.501105 -0.198135 0.455231
-0.187034 0.48576 -0.510942
-0.178001 0.491036 0.477079
-0.197229 0.490307 -0.498224
-0.177455 0.498571 0.472541
-0.207557 -0.506775 0.485504
0.493966 -0.201542 0.484536
-0.516235 -0.195203 0.471508
-0.197698 0.481536 0.485684
-0.188102 0.515387 -0.508219
-0.214166 0.49883 0.503023
-0.190469 -0.495165 0.513356
0.479511 -0.211164 0.483176
-0.495523 -0.194244 0.498359
-0.204621 -0.49035 0.511017
-0.186339 -0.496188 -0.508722
-0.190069 0.508488 -0.49162
-0.213008 -0.488988 -0.483924
0.506431 -0.194177 -0.503426
-0.500133 -0.191584 -0.518358
-0.175652 -0.49682 0.499219
-0.180123 0.48152 -0.495642
-0.17575 -0.499423 -0.482791
0.495902 -0.198538 -0.490917
-0.483216 -0.188208 -0.484753
-0.185634 -0.479912 0.516251
-0.176502 0.503338 -0.483334
-0.192581 -0.496276 -0.482268
0.488952 -0.170032 -0.493521
-0.187892 0.473557 -0.492889
-0.1714 0.483778 0.479103
-0.178154 -0.498514 0.48002
-0.182485 0.491655 -0.489787
-0.174541 0.502903 0.489489
-0.18607 -0.510458 0.480408
0.494217 -0.191992 0.509194
-0.510241 -0.178752 0.505139
-0.181936 0.491359 0.502277
-0.18061 0.513415 -0.488524
-0.181646 0.501511 0.507989
-0.175517 -0.503946 0.495288
0.503737 -0.185548 0.489794
-0.515698 -0.167625 0.501035
-0.185455 -0.492894 0.50643
-0.163015 -0.501103 -0.520177
-0.186005 0.49454 -0.491827
-0.164701 -0.510312 -0.505396
0.499069 -0.165622 -0.474993
-0.477864 -0.180229 -0.505347
-0.188851 -0.493286 0.490109
-0.149586 -0.499575 -0.515647
-0.162504 -0.489813 -0.473431
0.477101 -0.182256 -0.479183
-0.510681 -0.177959 -0.500968
-0.177535 -0.476778 -0.515862
-0.16857 0.506509 -0.477704
-0.502757 -0.183029 -0.48967
-0.188381 0.468025 0.48868
-0.171538 0.466723 -0.48812
-0.190738 0.489468 -0.494129
-0.175636 0.502196 0.492278
-0.190096 -0.494567 0.482521
0.499183 -0.173773 0.488507
-0.512556 -0.173664 0.475842
-0.178352 0.499457 0.484119
-0.185243 0.491369 -0.496809
-0.178004 0.482717 0.488864
-0.174185 -0.490184 0.491956
0.499184 -0.192929 0.48276
-0.492333 -0.189346 0.500422
-0.177717 -0.5061 0.484861
-0.154476 -0.493878 -0.492344
-0.170113 0.489048 -0.489152
-0.18212 -0.498406 -0.50737
0.494847 -0.156407 -0.510973
-0.495168 -0.177965 -0.517692
-0.166659 -0.479658 -0.50936
-0.170591 0.50113 -0.476518
-0.17576 -0.507702 -0.495365
0.509205 -0.16612 -0.496662
-0.177065 -0.455979 0.498743
-0.165212 -0.476636 -0.500137
-0.161882 -0.496231 -0.491113
0.507045 -0.154518 -0.469361
-0.490189 -0.163498 -0.477267
-0.506071 -0.153488 0.480879
-0.17874 0.475709 0.487711
-0.156852 0.480382 -0.489328
-0.172842 0.501053 0.498958
-0.171455 -0.487883 0.488917
-0.506229 -0.162375 0.493874
-0.169009 0.48412 0.509676
-0.167205 0.482607 -0.476824
-0.168263 0.511373 0.487771
-0.173452 -0.476649 0.483593
0.505814 -0.148737 0.502674
-0.498827 -0.161911 0.512566
-0.153901 -0.501614 0.496716
-0.161738 -0.514236 -0.490793
-0.170254 0.504986 -0.500256
-0.16266 -0.504648 -0.478965
0.480485 -0.17874 -0.487467
-0.49488 -0.157666 -0.488128
-0.163351 -0.511045 0.500009
-0.17019 -0.51575 -0.486098
-0.153146 -0.465602 0.498539
-0.501804 -0.147138 -0.476142
-0.154184 0.487425 0.518933
-0.158389 0.488684 -0.498791
-0.1527 0.501522 0.492733
-0.146017 -0.500215 0.501538
0.496267 -0.156479 0.492965
-0.502967 -0.1441 0.500262
-0.147333 0.493887 0.499402
-0.146746 0.509576 -0.518335
-0.152464 0.484551 0.50615
-0.150058 -0.504098 0.502714
0.489533 -0.140121 0.497288
-0.501776 -0.152865 0.513573
-0.139302 -0.502367 0.486236
-0.140169 -0.507555 -0.501657
-0.126437 0.500823 -0.481868
-0.141135 -0.503001 -0.504565
0.508033 -0.160122 -0.503993
-0.493586 -0.141398 -0.490192
-0.151431 -0.489282 0.495857
-0.153683 0.496126 -0.482172
0.489025 -0.166273 -0.484394
-0.137706 -0.482762 0.49982
-0.152034 -0.502503 -0.468981
-0.149698 0.472342 -0.502853
-0.135389 0.504396 0.466588
-0.149225 0.505438 0.482227
-0.152656 -0.496864 0.483236
-0.151606 0.490273 0.491928
-0.148419 0.493038 -0.51084
-0.150415 0.514648 0.496423
-0.149147 -0.498371 0.490779
0.498685 -0.153134 0.484428
-0.494841 -0.147152 0.495628
-0.132523 -0.505398 0.496268
-0.129709 -0.489158 -0.497816
-0.124452 0.506679 -0.492121
-0.139952 -0.483905 -0.488604
0.489115 -0.131926 -0.505831
-0.512491 -0.122229 -0.508244
-0.147219 -0.476801 0.500374
-0.127814 -0.49644 -0.505011
-0.129009 0.502687 -0.511196
-0.141173 -0.493559 -0.47991
-0.129772 -0.492471 0.521542
-0.143039 -0.489782 -0.499543
-0.139458 -0.498137 -0.49189
-0.498615 -0.136842 -0.481356
-0.149671 -0.509681 0.486321
-0.13732 0.491602 0.508206
-0.137106 0.481135 -0.508058
-0.129988 0.505995 0.483667
-0.137178 -0.508656 0.498441
0.485819 -0.12798 0.470839
-0.515313 -0.122131 0.481432
-0.141011 0.497492 0.507629
-0.149618 0.518045 -0.497935
-0.134183 0.50361 0.508612
-0.121042 -0.511424 0.476677
0.481755 -0.137886 0.506371
-0.499979 -0.130089 0.51669
-0.129095 -0.482108 0.501703
-0.123454 -0.505933 -0.489788
-0.130516 0.515445 -0.515335
-0.116803 -0.502415 -0.492783
0.483289 -0.131483 -0.500994
-0.485949 -0.136699 -0.497685
-0.130756 -0.50741 -0.501134
-0.1243 0.509932 -0.49182
-0.127674 -0.507853 -0.496274
0.495828 -0.125823 -0.495362
-0.487917 -0.139139 -0.473953
-0.137292 -0.495689 0.480114
-0.113032 0.492844 0.496125
-0.132297 0.485918 -0.508433
-0.122959 -0.506457 0.486992
0.48883 -0.116917 0.488741
-0.506179 -0.136393 0.496057
-0.137358 0.514566 0.504478
-0.134942 0.501995 -0.504199
-0.121752 0.512794 0.499986
-0.133366 -0.500213 0.512528
0.492403 -0.136305 0.502621
-0.493572 -0.134568 0.513325
-0.120624 -0.487337 0.510997
-0.120865 -0.4947 -0.522081
-0.10942 0.525857 -0.501213
-0.11816 -0.501122 -0.4954
0.487488 -0.116857 -0.52399
-0.49958 -0.12639 -0.498701
-0.114873 -0.492708 -0.490528
-0.0997865 -0.493519 -0.489956
0.509518 -0.126871 -0.500832
-0.496704 -0.0875925 -0.478893
-0.128608 -0.46599 0.499112
-0.11582 -0.495527 -0.493406
0.516001 -0.0979451 -0.490282
-0.131516 0.468515 -0.499198
-0.120924 0.499049 0.489386
-0.499171 -0.122597 0.474422
-0.126565 0.494678 0.485976
-0.131415 0.510474 -0.522839
-0.119396 0.493895 0.505955
0.503434 -0.104767 0.473978
-0.131562 0.51063 0.499771
-0.126301 0.497609 -0.482744
-0.118397 0.491951 0.494305
-0.125965 -0.496917 0.501892
0.501013 -0.113312 0.512512
-0.504166 -0.101722 0.486229
-0.119268 -0.499257 0.515461
-0.118593 -0.489377 -0.513307
-0.115275 0.511039 -0.510143
-0.0970854 -0.504748 -0.490321
0.481687 -0.11623 -0.520861
-0.505954 -0.108521 -0.488306
-0.103177 -0.50112 0.489355
-0.101067 -0.486527 -0.499476
0.500511 -0.102761 -0.47414
-0.500604 -0.104425 -0.481142
-0.108704 0.505398 -0.477243
-0.105562 -0.487444 -0.460258
-0.104488 0.468162 0.519377
-0.112017 -0.499837 0.469702
-0.0972368 0.503593 -0.502883
-0.116912 0.519003 0.479375
-0.502838 -0.104295 0.487988
-0.0989782 0.47559 0.501179
-0.088614 0.500449 -0.482666
-0.109735 0.516708 0.481331
-0.108672 -0.508194 0.486987
0.486561 -0.111911 0.511895
-0.503214 -0.110163 0.493342
-0.101697 -0.491119 0.513248
-0.101661 -0.500788 -0.511467
-0.0896423 0.503509 -0.511783
-0.0935287 -0.49665 -0.509996
0.508966 -0.0809683 -0.50038
-0.495106 -0.0799564 -0.501217
-0.099732 -0.487477 -0.490025
-0.0939307 0.502731 -0.47495
0.499114 -0.103267 -0.481009
-0.118564 -0.465237 0.482151
-0.516602 -0.09434 -0.495285
-0.0953144 -0.495499 0.467872
0.500241 -0.101994 0.494297
-0.101859 0.490818 0.491679
-0.0861334 0.484287 -0.50464
-0.0923068 0.507394 0.489563
0.50773 -0.0881643 0.490817
-0.492521 -0.0878721 0.49371
-0.0773651 0.5213 0.490421
-0.0969546 0.48619 -0.510264
-0.0985069 0.488406 0.486285
-0.0990837 -0.50155 0.498941
0.503251 -0.0878895 0.500496
-0.507376 -0.104887 0.499099
-0.0842009 -0.530383 0.488865
-0.0795111 -0.481979 -0.498379
-0.0902632 0.494825 -0.506615
-0.112714 -0.495536 -0.502404
0.501145 -0.076047 -0.513671
-0.521005 -0.0858105 -0.507173
-0.0783031 -0.481202 -0.505415
-0.0870527 0.501244 -0.497
-0.495545 -0.0931435 -0.511236
-0.0842048 -0.465955 0.497829
-0.0916122 0.488095 0.498685
-0.10768 -0.506907 0.471973
0.487234 -0.083598 0.492299
-0.084367 0.50295 0.498066
-0.114761 0.502075 -0.507952
-0.0709876 0.51599 0.505626
-0.0746507 -0.501581 0.501076
0.514551 -0.0895893 0.482367
-0.498024 -0.0928834 0.497669
-0.066281 -0.492521 0.503322
-0.0772002 -0.494776 -0.496809
-0.0854176 0.502096 -0.481953
-0.0641526 -0.507575 -0.506565
0.490807 -0.0827203 -0.511149
-0.501685 -0.0693875 -0.511672
-0.0891014 -0.479091 0.49255
-0.0983316 -0.489284 -0.490254
-0.0670889 0.49953 -0.474213
0.501543 -0.0792469 -0.486421
-0.492459 -0.0532381 -0.486292
-0.0840722 -0.477241 -0.490787
-0.0664603 -0.506136 0.501117
-0.0847367 0.470088 -0.486217
-0.0927888 -0.481225 0.501793
0.491662 -0.080521 0.501272
-0.0589895 0.484233 0.49823
-0.063084 0.491799 -0.497702
-0.0826946 0.517028 0.515971
-0.0743984 -0.513906 0.499052
0.493673 -0.082934 0.502708
-0.495171 -0.0847286 0.472201
-0.0631181 -0.510927 0.481567
-0.0609665 -0.492124 -0.486729
-0.0627531 0.498659 -0.497936
-0.0674381 -0.510419 -0.50684
0.49658 -0.0623284 -0.486676
-0.511529 -0.0680416 -0.491468
-0.0694484 -0.478244 0.50959
-0.065016 -0.480041 -0.51273
-0.0672283 0.508539 -0.498537
-0.0754097 -0.498908 -0.503369
0.495794 -0.0668623 -0.484592
-0.520872 -0.0589151 -0.500166
-0.0578688 -0.518016 0.476444
-0.0765528 0.48688 0.488092
-0.0896511 -0.482057 0.490739
0.514624 -0.0463281 0.488758
-0.488378 -0.0588883 0.499079
-0.0748734 0.501472 0.503502
-0.0666751 0.504351 -0.495285
-0.0567638 0.516584 0.493413
-0.0680723 -0.494977 0.500135
0.499501 -0.0568613 0.515492
-0.482418 -0.0690058 0.487251
-0.0629185 -0.494098 0.510849
-0.0660823 -0.50585 -0.503317
-0.0535437 0.519118 -0.505378
-0.0591628 -0.493293 -0.497845
0.51089 -0.0505858 -0.511229
-0.48933 -0.0539191 -0.506368
-0.0517905 0.501922 -0.465855
-0.493072 -0.0758671 -0.489804
-0.0455833 0.478915 0.468857
-0.057222 0.484382 0.490713
-0.0467932 0.482674 -0.491565
-0.0596513 0.501546 0.483627
-0.0634741 0.512803 0.490573
-0.0377721 0.484391 -0.500878
-0.0459106 0.500823 0.494443
-0.0485361 -0.490284 0.499472
0.495967 -0.0360337 0.49934
-0.505729 -0.052295 0.503322
-0.0338288 -0.507983 0.50236
-0.039587 -0.507801 -0.497576
-0.0518083 0.508502 -0.504726
-0.0406045 -0.505589 -0.503947
0.483661 -0.0556703 -0.484064
-0.496651 -0.0685419 -0.502704
-0.0505003 -0.493981 0.479907
-0.0466697 -0.49801 -0.504878
0.498066 -0.0524314 -0.47882
-0.46855 -0.0494907 -0.48447
-0.0612394 0.469221 -0.495628
-0.0375049 -0.504155 0.479719
0.503414 -0.0497866 0.514014
-0.48982 -0.0437612 0.485213
-0.0273641 0.514017 0.485009
-0.0289553 0.482398 -0.502114
-0.0517811 0.497991 0.502834
-0.0538456 -0.492862 0.499269
0.506145 -0.042735 0.498677
-0.498273 -0.0379519 0.509898
-0.0232314 -0.51708 0.496454
-0.0359328 -0.511155 -0.490715
-0.0457405 0.502311 -0.486092
-0.0168463 -0.499585 -0.494429
0.492929 -0.0305963 -0.500852
-0.506967 -0.0239428 -0.50125
-0.0527521 -0.49573 0.503812
-0.0460992 -0.498159 -0.487964
-0.033903 -0.503396 -0.475827
-0.496819 -0.0191519 -0.480034
0.50272 -0.0389176 -0.488894
-0.0654014 -0.506976 0.500453
-0.0261121 0.493494 0.481218
-0.0476741 0.507904 0.488024
-0.0277973 -0.49721 0.496592
0.506402 -0.0322333 0.482589
-0.523196 -0.0395147 0.485632
-0.0351708 0.489202 0.482203
-0.0423496 0.478473 -0.504642
-0.0347197 0.504508 0.502862
-0.0241387 -0.48103 0.496624
0.520991 -0.0333549 0.500506
-0.492956 -0.0377728 0.509684
-0.0268776 -0.505658 0.517373
-0.0399981 -0.498026 -0.50161
-0.019269 0.500198 -0.506103
-0.0415111 -0.505871 -0.505743
0.496853 -0.0172062 -0.498448
-0.497438 -0.0163707 -0.489431
-0.0224569 0.506167 -0.49732
-0.0217127 -0.51602 -0.476981
-0.0141355 -0.453826 -0.5114
-0.0119904 -0.500939 0.46984
0.490573 -0.0146859 0.494497
-0.0447365 0.481526 -0.493908
-0.0321978 0.488228 0.485393
-0.04595 0.486078 0.483545
-0.0300038 0.512803 -0.499164
-0.0309153 0.514913 0.485448
-0.0143929 -0.499751 0.490962
0.523804 -0.0103085 0.496886
-0.501052 -0.0167709 0.507667
-0.0252089 -0.501577 0.505308
-0.00856445 -0.508162 -0.508784
-0.0198798 0.515978 -0.511388
-0.0182914 -0.505027 -0.518941
0.491692 -0.0115307 -0.50254
-0.489619 -0.00275197 -0.50934
-0.0176436 -0.51633 -0.490088
0.489494 -0.00883693 -0.496076
-0.485478 -0.0161546 -0.493385
-0.510352 -0.0304479 0.481322
-0.0098336 0.491756 -0.500678
0.499377 -0.0255162 0.50555
-0.022089 0.514022 0.470111
-0.00970734 0.508903 -0.488881
-0.0109876 0.523915 0.497757
-0.0255129 -0.476657 0.48817
0.512118 -0.00797699 0.491744
-0.501618 -0.0259483 0.512818
-0.010589 -0.483642 0.503517
0.0180886 -0.5073 -0.500235
-0.00244047 0.499953 -0.510567
-0.0188168 -0.503911 -0.511968
0.477585 -0.0127923 -0.492638
-0.478482 -0.00803789 -0.495573
0.506635 -0.00599179 -0.470035
-0.494016 -0.013008 -0.504973
0.00407563 0.481708 0.473383
0.016014 0.500428 -0.492805
-0.0162957 0.494919 0.498269
-0.0186314 0.493492 0.504054
0.00876692 0.500101 -0.48751
0.0183466 0.510566 0.495782
0.0106479 -0.502247 0.491406
0.483642 -0.0146674 0.483489
-0.50972 -0.000409427 0.496921
0.00270091 -0.504157 0.502128
0.00017154 -0.491986 -0.499546
-0.000162564 0.486011 -0.496777
0.0175177 -0.516036 -0.497954
0.508247 0.00212875 -0.490299
-0.499921 0.0151949 -0.507363
0.0170183 -0.502622 -0.506946
-0.482498 0.0144783 -0.49822
0.00540239 0.493763 0.504897
0.0230351 -0.491813 0.489056
-0.00267571 0.52109 0.50645
0.00158603 0.475068 -0.505489
0.00836329 0.49537 0.48557
0.00392765 -0.481725 0.499188
0.509109 -0.00224117 0.499599
-0.492234 0.0114466 0.491248
0.000887001 -0.491883 0.511379
0.00230928 -0.500996 -0.498968
0.0118614 0.503982 -0.500688
0.0176359 -0.507129 -0.498862
0.519415 0.0138594 -0.497935
-0.516876 0.012771 -0.50362
0.0209078 -0.477676 0.509311
0.00798821 -0.482428 -0.503387
0.00345646 0.506778 -0.498748
0.489173 0.00281607 -0.50846
-0.520364 0.0172983 -0.489108
0.00563074 0.47204 0.50885
0.0154595 0.492535 0.48742
0.0245338 -0.513445 0.484778
0.514152 0.00788259 0.5058
-0.499467 0.0175037 0.494604
0.019775 0.496975 0.492493
0.00754961 0.522234 -0.496301
0.0175546 0.506063 0.503819
0.0232832 -0.491752 0.504415
0.496523 0.0158358 0.504882
-0.489561 0.0128175 0.503286
0.0116536 -0.505532 0.49982
0.0280313 -0.486927 -0.484823
0.00585053 0.509174 -0.492111
0.0370091 -0.490631 -0.48829
0.501078 0.0124774 -0.498258
-0.490864 0.0345932 -0.48486
0.0396427 -0.465943 0.510785
0.0268319 -0.480831 -0.483865
0.0465969 -0.518625 -0.501171
0.0398568 -0.487246 -0.467802
-0.515614 0.0270815 0.457739
0.0336111 0.496233 0.512137
0.0293863 0.516243 -0.494577
0.0181977 0.511207 0.480805
0.00163317 -0.50294 0.490621
-0.498429 0.0184721 0.489265
0.0292694 0.502641 0.502955
0.0209701 0.495547 -0.490275
0.0217588 0.503855 0.491219
0.0110856 -0.485557 0.500015
0.504635 0.0280932 0.495167
-0.499209 0.0361835 0.499076
0.0268469 -0.511923 0.502845
0.0391705 -0.496133 -0.487219
0.0282501 0.496428 -0.507195
0.0216544 -0.505044 -0.503711
0.504902 0.027286 -0.510038
-0.486637 0.0345346 -0.496927
0.0390703 -0.487788 0.499813
0.0524229 -0.49418 -0.4788
0.039382 0.507247 -0.475775
0.500886 0.0213074 -0.488906
0.0567271 0.498651 0.509459
0.0308907 0.491943 0.499961
0.50879 0.0273205 0.474319
-0.49659 0.0439711 0.495314
0.0598775 0.517611 0.483608
0.027247 0.50362 -0.505886
0.0505109 0.505052 0.506447
0.0397068 -0.506943 0.488134
0.493885 0.0379598 0.50432
-0.503501 0.045496 0.506233
0.0511815 -0.510992 0.49781
0.0501209 -0.507054 -0.515648
0.0383429 0.4928 -0.505206
0.0597819 -0.498836 -0.477125
0.506753 0.0502362 -0.494089
-0.503401 0.0458937 -0.510249
0.0277148 -0.479121 -0.481436
0.0579367 0.504177 -0.488858
-0.503188 0.0577743 -0.496888
0.0221722 -0.517805 -0.479277
0.521268 0.0656459 0.486139
0.063467 0.487209 0.508486
0.037292 0.503399 0.488831
0.499234 0.050984 0.510603
0.0368674 0.521417 0.495192
0.0421826 0.491079 -0.514143
0.0303362 0.498215 0.507142
0.045691 -0.489854 0.498235
0.493331 0.0430555 0.506236
-0.517965 0.0476895 0.504881
0.038108 -0.511051 0.511561
0.0526985 -0.498767 -0.515201
0.0566388 0.499006 -0.495878
0.0615063 -0.50738 -0.496997
0.494456 0.0586944 -0.50912
-0.511926 0.0527329 -0.50619
0.0715001 -0.500984 -0.495983
0.0524501 0.506105 -0.475748
0.0585517 -0.493966 -0.478793
0.0552938 -0.48834 0.47083
0.50928 0.0625719 0.474333
0.0759309 0.479936 0.497299
0.0562658 0.501162 0.495122
0.0534308 -0.514792 0.479057
0.484184 0.0553076 0.502741
-0.513618 0.0744643 0.476077
0.0487547 0.501212 0.49716
0.0618864 0.503698 -0.494126
0.0410883 0.491313 0.497279
0.0277821 -0.495763 0.490814
0.490483 0.0608594 0.486115
-0.495968 0.0538642 0.497972
0.0625192 -0.474057 0.519334
0.0619997 -0.494675 -0.489389
0.0791048 0.509335 -0.51179
0.0612142 -0.502936 -0.50489
0.497517 0.0436003 -0.475356
-0.492982 0.0559558 -0.486227
0.073614 -0.485143 0.501757
0.0676151 -0.51666 -0.470199
0.523351 0.0564584 -0.475108
0.0694378 0.495154 -0.514782
0.077238 0.508199 0.471924
0.0735655 -0.504072 0.501058
0.0571321 0.509732 0.506886
0.0693889 0.484997 -0.500532
0.0662768 0.512808 0.478818
0.0609464 -0.498569 0.484803
0.504918 0.0669879 0.491908
-0.504704 0.0619358 0.487114
0.0813509 -0.517983 0.48968
0.0718225 -0.506332 -0.50163
0.0777866 0.488468 -0.471932
0.0622247 -0.511869 -0.494718
0.503655 0.0831668 -0.507273
-0.51115 0.0813953 -0.489683
0.0915776 -0.494292 0.497118
0.066809 -0.504396 -0.508719
0.0752843 -0.507985 -0.481714
0.497695 0.0846611 -0.499846
0.0761048 0.50538 -0.516976
0.081625 0.489227 0.48229
0.505214 0.08174 0.481503
-0.483991 0.0804422 0.483894
0.0753038 0.498111 0.514961
0.0788571 0.488428 -0.497509
0.0943552 0.494344 0.497317
0.0761011 -0.492075 0.503723
0.515568 0.0689957 0.505835
-0.497751 0.0794303 0.50121
0.104893 -0.508002 0.503189
0.0814172 -0.508406 -0.520942
0.107067 0.494261 -0.518532
0.0893679 -0.489411 -0.497952
0.507789 0.0894681 -0.494711
-0.497505 0.100488 -0.481057
0.0965701 -0.494933 0.49569
0.0820281 -0.501754 -0.494905
0.0852533 0.50334 -0.484345
0.0851958 -0.491839 -0.487143
0.4993 0.0969687 -0.476683
0.506272 0.0948717 -0.481556
0.0907658 0.495603 0.4969
0.0956523 0.506332 0.488013
-0.496151 0.0652379 0.471284
0.0830841 0.502434 0.502234
0.090483 0.477807 -0.504223
0.096455 0.499061 0.500512
0.0791909 -0.509324 0.489008
0.503957 0.0974484 0.501954
-0.484943 0.0995131 0.506015
0.104516 -0.507608 0.501523
0.104118 -0.498029 -0.492911
0.101857 0.521982 -0.489557
0.0808815 -0.492891 -0.505022
0.51246 0.0965665 -0.50532
-0.506739 0.100277 -0.504753
0.110714 -0.487488 0.493473
0.0775003 -0.482919 -0.482294
0.111691 0.513308 -0.494718
0.485374 0.102154 -0.50625
-0.488428 0.0822869 -0.490776
0.112289 -0.494322 -0.498256
0.498288 0.111692 -0.465181
0.0867184 -0.505634 0.473846
0.0988741 0.465144 0.484248
0.099445 0.507032 0.480421
0.108905 -0.480265 0.480388
-0.500583 0.095981 0.500514
0.0896993 0.510496 0.494117
0.105977 0.498127 -0.517935
0.0977056 0.488935 0.508085
0.0902068 -0.496656 0.501878
0.493417 0.0983132 0.507326
-0.497495 0.106909 0.49713
0.0872838 -0.520477 0.521935
0.107978 -0.495168 -0.494513
0.110461 0.497587 -0.480134
0.110976 -0.50043 -0.4967
0.490726 0.093902 -0.513794
-0.485949 0.12263 -0.494621
0.116678 -0.482228 0.506434
0.0932592 -0.50369 -0.502973
0.476864 0.094331 -0.496494
0.097802 -0.48717 -0.487696
0.490492 0.108417 0.471123
0.0865771 0.507128 0.501848
0.116141 0.486258 -0.489509
0.118836 0.479557 0.504187
0.11712 -0.502527 0.477699
0.101513 0.491662 0.51981
0.110895 0.484225 -0.49997
0.110835 0.487843 0.507691
0.119815 -0.516792 0.506594
0.50801 0.119735 0.519028
-0.509573 0.110081 0.503268
0.120849 -0.495702 0.509412
0.104576 -0.514641 -0.51066
0.104067 0.487118 -0.496895
0.116927 -0.486275 -0.504883
0.505555 0.129544 -0.502487
-0.500072 0.106198 -0.503888
0.132273 -0.488027 0.51205
0.118939 -0.489614 -0.505109
0.109241 0.494867 -0.495513
0.507147 0.111034 -0.500579
0.135539 -0.485133 0.500836
0.12687 0.478719 0.511676
0.124132 -0.512241 0.477103
0.111038 0.501288 0.503998
0.132248 0.47032 0.508173
0.116403 -0.502505 0.504653
0.486813 0.126516 0.477041
-0.495969 0.111445 0.477085
0.107998 0.482912 0.498209
0.140915 0.500452 -0.491491
0.102619 0.498075 0.505935
0.125173 -0.502744 0.484909
0.514392 0.107581 0.500588
-0.50892 0.111509 0.501765
0.121468 -0.519596 0.497055
0.135962 -0.504408 -0.513505
0.11691 0.512883 -0.50668
0.122143 -0.495115 -0.503247
0.496148 0.110977 -0.51436
-0.499395 0.135408 -0.502685
0.111414 -0.48387 0.494748
0.121609 0.493521 -0.493
0.128715 -0.514269 -0.485709
-0.492757 0.145865 -0.491593
0.122432 -0.471395 0.514611
0.128302 0.498496 -0.482798
0.502368 0.127816 -0.480561
0.120532 0.465629 0.494963
0.132784 0.473085 -0.494613
0.128025 0.505188 -0.485613
0.118765 -0.494174 0.490873
-0.487107 0.126971 0.486019
0.129106 0.497377 0.506347
0.124686 0.50471 -0.484272
0.11121 0.487133 0.500907
0.110861 -0.496044 0.49448
0.493033 0.112401 0.49185
-0.501583 0.127027 0.492266
0.121467 -0.494259 0.497777
0.140084 -0.495768 -0.506003
0.156609 0.502507 -0.49251
0.118933 -0.508244 -0.505342
0.510879 0.133582 -0.522103
-0.502891 0.142906 -0.507213
0.126872 -0.478954 -0.492198
0.129728 -0.497569 -0.494549
0.504045 0.141392 -0.492315
-0.492804 0.145769 -0.480443
0.496221 0.144435 -0.489275
0.130165 -0.48908 0.471287
0.149981 0.498285 -0.516847
0.141346 0.508577 0.480298
0.139109 0.505637 0.501344
0.127087 0.491542 -0.527335
0.137569 0.477644 0.510978
0.130478 -0.505808 0.488719
0.502586 0.155404 0.519463
-0.499515 0.134229 0.489295
0.145946 -0.510547 0.513864
0.138741 -0.523929 -0.502067
0.129935 0.498369 -0.498327
0.157661 -0.501438 -0.511121
0.488651 0.129745 -0.497515
-0.500377 0.127498 -0.511286
0.159999 -0.506924 0.496661
0.148638 -0.466467 0.513607
0.151 -0.483546 -0.50011
0.161512 0.505653 -0.500348
0.131887 0.464134 -0.498124
0.140227 0.481474 -0.513485
0.152481 0.508469 0.473983
0.474274 0.148756 0.498424
0.132783 0.482008 0.472481
0.138355 0.51357 -0.501654
0.156683 0.515678 0.490891
0.14455 -0.492947 0.495769
0.503977 0.155653 0.501604
-0.506107 0.139611 0.493183
0.156697 -0.512556 0.496705
0.15948 -0.497757 -0.503301
0.134352 0.488723 -0.489806
0.142913 -0.507177 -0.494872
0.505682 0.181305 -0.49063
-0.490704 0.154745 -0.507437
0.1609 0.49596 -0.494753
0.149898 0.492651 0.470156
0.141594 -0.512619 0.479172
0.501911 0.161082 0.459705
-0.502024 0.145651 0.478988
0.159379 0.483484 -0.511403
0.154318 -0.501881 0.475988
-0.482686 0.153666 0.498238
0.163161 0.515891 0.499491
0.143541 0.497637 -0.50283
0.148038 0.514081 0.493802
0.142107 -0.490932 0.481492
0.493029 0.148338 0.510528
-0.482212 0.164593 0.484368
0.192638 -0.494886 0.503304
0.180368 -0.498364 -0.505233
0.164073 0.497697 -0.49293
0.167284 -0.492567 -0.486739
0.510481 0.169744 -0.499353
-0.505978 0.156393 -0.515192
0.197295 -0.475631 -0.495637
0.163544 0.51085 -0.486959
0.165949 -0.508023 -0.507883
0.502994 0.189108 -0.480863
-0.508372 0.184612 -0.495721
0.193204 -0.482045 0.509392
0.164442 0.485365 -0.478361
0.502814 0.16266 -0.480288
-0.50241 0.160331 -0.480861
0.161404 0.471969 -0.502255
-0.508999 0.151006 0.483431
0.159683 0.489121 0.50429
0.151859 0.494093 0.495825
0.174637 -0.490428 0.487515
0.507039 0.170483 0.478205
-0.505368 0.169136 0.475941
0.164007 0.499809 0.509228
0.162755 0.483087 -0.501917
0.163358 0.493755 0.494127
0.174029 -0.502949 0.50171
0.496199 0.165032 0.500074
-0.50363 0.172166 0.502658
0.158365 -0.501578 0.50457
0.180174 -0.504803 -0.476008
0.170835 0.491017 -0.493209
0.183492 -0.493579 -0.510528
0.498573 0.183918 -0.524983
-0.491271 0.168862 -0.511526
0.171192 -0.476285 0.494216
0.185055 -0.505863 -0.501867
-0.497458 0.169822 -0.482669
0.193917 -0.470071 0.506305
0.18801 0.494755 -0.485367
0.185126 0.494152 0.477691
0.172252 -0.504347 0.471946
0.184017 0.479871 0.497637
0.163842 0.492022 -0.507586
0.172391 0.502598 0.500987
0.179275 -0.501147 0.505353
-0.504781 0.169305 0.477199
0.178806 0.513405 0.492344
0.191507 0.510659 -0.491114
0.186328 0.507905 0.486983
0.183166 -0.484621 0.507591
0.507021 0.175019 0.513794
-0.529713 0.18034 0.51366
0.202148 -0.498541 0.507487
0.174713 -0.504108 -0.519698
0.194375 0.505419 -0.507612
0.173112 -0.509855 -0.508023
0.513656 0.191284 -0.500103
-0.494885 0.186725 -0.501736
0.184278 -0.501861 -0.49171
0.177198 -0.500433 -0.505346
0.50474 0.182075 -0.490041
-0.525848 0.194351 -0.499724
0.182664 -0.472303 0.484586
0.51811 0.186584 -0.478537
-0.517967 0.193558 -0.471926
0.512582 0.168398 0.479577
0.203804 0.476231 0.507369
0.192114 0.475861 -0.494877
0.192886 -0.509561 0.497464
0.492487 0.189176 0.476951
-0.485771 0.16486 0.497
0.190061 0.510322 0.500636
0.181428 0.506072 -0.49876
0.190231 0.484477 0.503507
0.1821 -0.496676 0.508667
0.502973 0.180741 0.490665
-0.488972 0.191344 0.49168
0.205356 -0.501233 0.506952
0.197108 -0.505702 -0.498368
0.188104 0.502481 -0.499283
0.204323 -0.511935 -0.491343
0.503047 0.220467 -0.50617
-0.48104 0.185573 -0.49546
0.498822 0.200076 -0.490072
-0.512384 0.19075 -0.493752
0.206284 -0.49774 0.505196
0.519735 0.18374 -0.480788
0.205985 0.490603 0.485073
0.217022 0.48638 0.494434
0.19336 -0.496778 0.487701
-0.499467 0.180786 0.466663
0.201926 0.502356 0.509013
0.220061 0.490879 -0.492284
0.194591 -0.510595 0.471902
0.516425 0.18807 0.493569
-0.512931 0.202335 0.502022
0.192192 0.483082 0.502545
0.188398 0.519603 -0.499633
0.202896 0.503814 0.494446
0.19795 -0.511512 0.479084
0.50447 0.196815 0.491262
-0.500102 0.232076 0.486924
0.195557 -0.498203 0.502771
0.192873 -0.507741 -0.49868
0.212101 0.500593 -0.48948
0.195418 -0.511029 -0.510712
0.49 0.219292 -0.517086
-0.496937 0.212241 -0.496006
0.199134 -0.480759 0.505725
0.203589 -0.497727 -0.51852
0.217559 0.506779 -0.494885
0.201554 -0.505424 -0.476526
0.516229 0.212498 -0.495331
0.207576 -0.461194 -0.481404
0.496635 0.206733 -0.483699
0.207124 0.497013 -0.473401
0.222343 -0.508181 -0.470808
0.490341 0.210947 0.467031
-0.502268 0.222346 0.471154
0.204693 0.490915 0.473542
-0.510842 0.210129 0.467159
0.200309 0.48439 0.502761
0.189851 0.498698 -0.485541
0.21023 0.515938 0.488136
0.199641 -0.479075 0.482242
0.49396 0.209461 0.511252
-0.493532 0.210114 0.495829
0.205078 0.490117 0.488965
0.205406 0.482918 -0.499912
0.220453 0.493485 0.505748
0.22388 -0.488549 0.500399
0.498178 0.224557 0.501954
-0.494223 0.18671 0.506127
0.227288 -0.510593 0.502052
0.220633 -0.490863 -0.497309
0.206366 0.497489 -0.490721
0.217123 -0.49999 -0.511079
0.486589 0.234187 -0.511466
-0.479462 0.218654 -0.495126
0.228433 -0.496079 0.505316
0.215334 -0.493917 -0.482912
0.499473 0.236486 -0.499591
-0.503347 0.213754 -0.474837
0.212884 -0.503294 -0.500631
0.213448 0.511701 -0.477744
0.216741 -0.514168 -0.476062
0.523508 0.244383 -0.482801
0.200646 -0.459212 -0.474777
0.209463 -0.511276 -0.458018
0.215978 0.492402 -0.494974
0.240872 -0.515509 0.476526
0.496875 0.222878 0.49924
-0.523825 0.217859 0.473953
0.214432 0.480576 0.512149
0.200986 0.495177 -0.493617
0.226504 0.505091 0.486121
0.209721 -0.506303 0.481602
0.504545 0.196752 0.483004
-0.523735 0.219595 0.496303
0.22114 0.48714 0.493857
0.214434 0.496018 -0.495335
0.228058 0.483814 0.497616
0.21412 -0.492912 0.499661
0.495244 0.214464 0.492067
-0.48958 0.214939 0.531234
0.234405 -0.503409 0.492939
0.233201 -0.480951 -0.504055
0.225701 0.498771 -0.493202
0.239292 -0.503752 -0.48515
0.496129 0.215444 -0.503469
-0.495988 0.233327 -0.499885
0.223776 -0.496328 0.494669
0.22413 -0.493414 -0.501977
0.222934 0.512838 -0.511478
-0.515577 0.234921 -0.497962
0.499748 0.232191 -0.462461
-0.48747 0.248711 -0.468509
0.226163 -0.459447 0.490144
0.224154 -0.48151 -0.509295
0.221529 0.497831 0.465529
-0.505762 0.238171 0.477986
0.233823 0.483577 0.505994
0.22234 0.483307 -0.499606
0.217889 0.489841 0.465954
0.236534 0.477067 0.493209
0.221091 0.510368 -0.505337
0.239956 0.484254 0.48853
0.21759 -0.484428 0.49281
0.228614 0.495711 0.504635
0.231968 0.493791 -0.497664
0.233021 0.503247 0.494788
0.224891 -0.500356 0.505573
0.498424 0.226248 0.501058
-0.497657 0.215808 0.481415
0.236486 -0.505966 0.489916
0.245439 -0.495762 -0.510854
0.232715 0.500297 -0.492004
0.23666 -0.504267 -0.490478
0.49092 0.223911 -0.497707
-0.520404 0.23462 -0.493479
0.245084 -0.497649 0.482737
0.489613 0.243298 -0.488076
0.223395 -0.48655 0.522329
0.23378 0.506217 -0.485631
0.233159 -0.498862 -0.464145
-0.515661 0.248102 -0.471034
-0.497854 0.242691 -0.45886
0.262988 -0.50082 0.479314
0.504918 0.244674 0.476091
0.235031 0.496853 0.491205
0.23766 0.510343 0.477048
0.239998 0.489359 0.514018
0.22355 0.495154 -0.514003
0.236738 0.50532 0.488923
0.233896 -0.491873 0.500593
0.507004 0.233167 0.495554
0.232557 0.494085 0.506305
0.22052 0.498889 -0.505116
0.243214 0.485075 0.503456
0.221091 -0.482087 0.500204
0.48753 0.237513 0.507417
-0.514041 0.208434 0.499938
0.248349 -0.512223 0.487992
0.253702 -0.510748 -0.48391
0.242463 0.518721 -0.508052
0.228037 -0.517397 -0.502595
0.502641 0.247123 -0.496745
-0.510038 0.225324 -0.506678
0.263839 -0.494467 -0.516952
0.241577 0.490703 -0.491785
0.247135 -0.48255 -0.502944
0.502032 0.241629 -0.491122
-0.505934 0.251085 -0.470615
0.236861 -0.488568 0.503103
0.226343 0.499228 -0.482076
0.251269 -0.500068 -0.476979
-0.509207 0.243116 -0.474458
0.237284 -0.468215 0.510253
0.497796 0.241267 -0.468276
0.236581 -0.4618 0.502865
0.255247 0.467835 0.487189
0.242822 0.492396 0.471572
0.249957 -0.500899 0.46648
-0.477833 0.254422 0.475035
0.241997 0.49101 -0.500502
0.236519 0.510218 0.488849
0.510374 0.233053 0.476907
0.249266 0.495355 0.494361
0.249139 0.477103 -0.492176
0.254746 -0.510612 0.490396
0.498381 0.257963 0.479667
-0.510844 0.250118 0.489059
0.240703 0.486787 0.489352
0.24598 0.504004 -0.510699
0.26681 0.500872 0.515278
0.250067 -0.498206 0.48994
0.507004 0.24215 0.488967
-0.501366 0.234005 0.508837
0.261512 -0.51047 0.506045
0.263227 -0.494149 -0.488847
0.263437 0.507632 -0.498875
0.244582 -0.496117 -0.493786
0.504994 0.270456 -0.489472
-0.520997 0.254065 -0.50015
0.272347 -0.488999 0.510971
0.269891 -0.502812 -0.494541
0.253064 -0.522684 -0.494202
0.494012 0.234434 -0.494633
-0.503846 0.265452 -0.492239
0.266143 -0.484359 -0.513667
0.270858 -0.499614 -0.47273
-0.488438 0.25147 -0.492758
0.49534 0.264998 -0.466402
0.490185 0.263293 0.454374
0.239489 0.474619 0.513681
0.265575 -0.503845 0.470025
0.499935 0.268506 0.471286
0.258084 0.502144 0.50465
0.263301 0.483006 -0.498015
0.515076 0.253421 0.482347
0.262277 0.499611 0.506506
0.24235 0.497711 0.472405
0.240219 -0.499605 0.483724
0.492992 0.238259 0.478884
-0.477933 0.26344 0.481973
0.264814 0.484453 0.491725
0.26538 0.500539 -0.487772
0.269533 0.505144 0.499343
0.277573 -0.510259 0.506798
0.505582 0.253068 0.501303
-0.503396 0.262687 0.50255
0.2612 -0.492375 0.511925
0.266672 -0.506067 -0.495567
0.270257 0.50827 -0.507629
0.260903 -0.503202 -0.491877
0.487889 0.260601 -0.499831
-0.508239 0.254673 -0.491971
0.260191 -0.496329 0.50493
-0.489456 0.263848 -0.484271
0.269551 -0.472206 -0.49203
0.27342 -0.481791 0.480951
0.28489 -0.499846 -0.471819
-0.498008 0.280281 -0.467515
0.264754 0.488057 0.471539
0.264583 -0.510472 0.471643
0.272334 0.48624 0.505568
0.272053 0.508314 0.489646
0.265986 -0.504993 0.478369
0.274021 0.485559 -0.509269
0.267745 0.498258 0.493752
0.263245 -0.493054 0.490801
0.49321 0.252148 0.480604
-0.493249 0.260364 0.49159
0.263657 0.511929 0.498102
0.281719 0.482021 -0.505046
0.264072 0.508531 0.508931
0.257253 -0.498208 0.487531
0.514977 0.256765 0.501655
-0.493925 0.259579 0.488695
0.293642 -0.519897 0.498293
0.27562 -0.500575 -0.516999
0.282442 0.508336 -0.500613
0.269896 -0.520286 -0.508082
0.473066 0.264029 -0.491179
-0.490987 0.274118 -0.518146
0.285569 -0.487277 0.500224
0.303685 -0.477168 -0.518196
0.280017 0.492372 -0.485061
0.277696 -0.508068 -0.49223
0.477478 0.288815 -0.484
-0.502756 0.2952 -0.505202
0.284558 -0.493038 0.505615
0.281326 0.508961 -0.464864
-0.503437 0.274232 -0.472196
0.288954 0.49453 -0.467523
0.490425 0.285797 -0.474088
0.281702 0.495444 0.465143
-0.497834 0.281638 0.447957
0.297181 0.471815 0.488205
0.28435 0.499291 0.452393
0.277585 -0.494291 0.476269
0.495086 0.271768 0.475051
0.280862 0.47204 0.501153
0.290808 0.456865 -0.490108
0.27537 0.50815 0.478931
0.492689 0.257018 0.474835
0.265334 0.494666 0.499001
0.265757 0.489798 -0.494125
0.274592 -0.501533 0.50544
0.500495 0.272886 0.482687
-0.501369 0.287604 0.505237
0.28398 0.489823 0.517355
0.277423 0.495201 -0.519163
0.296052 0.506675 0.506593
0.263614 -0.486563 0.503675
0.489786 0.29586 0.484874
-0.496689 0.289249 0.48372
0.297312 -0.51192 0.501253
0.288585 -0.501724 -0.50351
0.280588 0.517131 -0.506022
0.296476 -0.480885 -0.497301
0.496498 0.274284 -0.484493
-0.506136 0.290232 -0.500001
0.301861 -0.487038 0.482653
0.292804 -0.481573 -0.511861
0.308293 0.508749 -0.495983
0.498344 0.278759 -0.495726
0.303071 -0.505217 0.485267
0.27249 -0.47365 -0.470076
-0.493262 0.28069 -0.4738
0.285407 -0.476029 0.511917
0.290766 -0.474362 -0.479051
0.295525 0.511489 -0.479641
-0.498796 0.296319 -0.458225
0.288535 0.449013 0.489543
0.279676 0.525843 0.474706
0.285424 -0.490016 0.465938
0.282975 0.47863 -0.49886
0.281768 -0.493186 0.48826
0.509491 0.284181 0.478695
-0.506162 0.280476 0.477659
0.288347 0.496697 0.501597
0.27845 0.488114 0.497619
0.31408 -0.491185 0.485207
-0.489817 0.30935 0.485495
0.294976 0.498642 0.486092
0.289739 0.500981 -0.490305
0.280793 0.490619 0.530357
0.270851 -0.493009 0.506488
0.507386 0.28606 0.477259
-0.49833 0.284461 0.503481
0.279526 -0.504393 0.499743
0.286581 -0.508918 -0.501523
0.285762 0.496036 -0.518277
0.292465 -0.49025 -0.490492
0.506672 0.299915 -0.49087
-0.512336 0.278983 -0.492934
0.299082 -0.492434 -0.496043
0.290277 0.484887 -0.493777
0.303254 -0.489293 -0.491551
0.509513 0.297138 -0.513933
0.289192 -0.492729 0.512605
0.273789 -0.489009 -0.500771
0.301665 0.509252 -0.494438
0.308411 -0.502603 -0.451445
0.300607 -0.481241 0.498174
0.300208 0.501047 -0.455761
0.290002 -0.510432 -0.457597
0.3039 -0.506626 -0.446125
0.494019 0.304299 -0.451499
0.298413 0.465486 0.492597
0.294955 0.463646 0.511255
0.308009 0.496365 0.472539
0.307776 -0.490879 0.467591
-0.493822 0.318126 0.48108
0.307986 0.480232 -0.517598
0.297119 0.503226 0.494905
0.295013 -0.494183 0.47596
0.496066 0.286203 0.495418
-0.482946 0.301945 0.497509
0.311261 0.509952 0.489357
0.286308 0.517542 -0.489572
0.305383 0.522572 0.517975
0.291979 -0.497554 0.508557
0.506824 0.304098 0.511753
-0.495394 0.310478 0.486987
0.303742 -0.497126 0.486462
0.30888 -0.497274 -0.474985
0.287796 0.505741 -0.485646
0.291227 -0.494334 -0.482678
0.504677 0.30469 -0.498019
-0.508888 0.299637 -0.5025
0.304318 -0.503109 0.487736
0.315319 -0.501204 -0.487171
0.3136 0.502352 -0.492748
0.310185 -0.50985 -0.492586
0.495941 0.318036 -0.496421
-0.509502 0.324149 -0.501162
0.313753 -0.476388 0.506188
0.285947 -0.48764 -0.487387
0.301965 0.520932 -0.483324
0.319653 -0.502211 -0.478507
0.487014 0.31557 -0.465152
-0.499928 0.319217 -0.482615
0.29746 -0.463584 0.500544
-0.50046 0.318276 -0.47289
0.49866 0.294404 -0.459882
0.305953 -0.499443 0.440571
0.501974 0.299411 0.475774
0.313483 0.485024 0.489876
0.297506 0.488415 -0.499531
0.322228 0.509804 0.462271
-0.507828 0.306043 0.454561
0.311605 0.47403 0.500985
0.298375 0.47645 -0.506394
0.30798 0.503139 0.471839
0.30541 -0.495172 0.490359
0.512281 0.309815 0.485322
-0.500046 0.308902 0.483065
0.287384 0.492241 0.490502
0.304177 0.49619 -0.512939
0.314207 0.509295 0.468015
0.30717 -0.483465 0.509665
0.485506 0.318643 0.465784
0.315362 0.505639 0.497955
0.298975 0.489375 -0.502798
0.312174 0.500712 0.500975
0.298874 -0.504773 0.503655
0.481988 0.28784 0.498232
-0.491132 0.31375 0.499063
0.308979 -0.50236 0.502468
0.314159 -0.496564 -0.496416
0.309436 0.510408 -0.492435
0.321517 -0.495906 -0.495514
0.50165 0.308712 -0.482469
-0.512532 0.318355 -0.508526
0.321842 -0.486235 0.502174
0.320993 -0.483182 -0.497346
0.292776 0.501625 -0.521189
0.326158 -0.506497 -0.505662
0.494902 0.324384 -0.473687
-0.482499 0.320097 -0.490161
0.313292 -0.491916 0.495971
0.322192 -0.476363 -0.504144
0.322644 0.494795 -0.484204
0.322367 -0.506718 -0.4923
0.501044 0.325142 -0.470612
-0.503655 0.333652 -0.483216
0.321517 -0.462018 0.48888
0.314542 -0.499965 -0.475501
0.32555 -0.472895 0.499798
0.333126 0.489874 -0.456476
0.497773 0.31838 -0.448025
-0.50929 0.311733 0.456139
0.313769 0.463233 -0.507534
0.341248 0.49131 0.473898
-0.517498 0.311722 0.478474
0.318825 0.474807 0.5075
0.320119 0.473877 -0.496872
0.335278 0.483079 0.468108
0.315334 -0.489326 0.483408
0.491897 0.329549 0.491645
-0.489641 0.338025 0.469099
0.328335 0.48085 -0.495993
0.304159 0.503517 0.480029
0.494986 0.301356 0.493649
-0.507105 0.316338 0.495269
0.3035 0.502371 0.494951
0.328739 0.49342 -0.50427
0.319365 0.494062 0.494272
0.321085 -0.510187 0.504299
0.515828 0.292628 0.504683
-0.478403 0.315979 0.507767
0.344328 -0.470982 0.516596
0.313742 -0.513005 -0.512688
0.314977 0.480578 -0.479585
0.314831 -0.507096 -0.501414
0.485908 0.33536 -0.492557
-0.49143 0.33948 -0.501346
0.322378 -0.49021 0.499196
0.322716 0.49575 -0.486676
0.319879 -0.488721 -0.497415
0.494782 0.32555 -0.486331
-0.495971 0.338051 -0.487785
0.33063 -0.471384 0.484803
0.332016 -0.481635 -0.509431
0.330801 -0.494412 -0.484367
0.503567 0.3358 -0.490924
-0.490585 0.309114 -0.484264
0.321771 -0.485481 0.490875
0.31546 -0.456961 -0.50775
0.337116 0.494713 -0.459298
0.321337 -0.484018 -0.459828
-0.48472 0.315307 -0.456702
0.345772 -0.467098 -0.496028
0.330669 0.493729 -0.439965
0.307245 -0.44923 -0.511464
0.325486 -0.502316 0.443163
0.314385 0.469375 -0.488065
0.326869 -0.495206 0.466078
-0.487609 0.348215 0.454194
0.329166 -0.499965 0.45742
-0.49853 0.334662 0.463204
0.321688 0.489412 0.489509
0.330813 -0.498942 0.471982
0.493555 0.313825 0.477661
0.331004 0.484045 0.480988
0.347624 0.480448 -0.495917
0.341706 0.510576 0.492144
0.334046 -0.504225 0.509197
0.493387 0.335508 0.485547
-0.485456 0.350445 0.507831
0.32171 0.525176 0.50836
0.339724 0.491233 -0.498609
0.347725 0.492056 0.4974
0.321394 -0.497172 0.490393
0.492877 0.337927 0.503081
-0.488186 0.331181 0.517986
0.352325 -0.508201 0.494693
0.338184 -0.51728 -0.519188
0.343715 0.488036 -0.508445
0.349284 -0.496606 -0.48945
0.491217 0.35048 -0.504305
-0.513531 0.338577 -0.497821
0.344089 -0.502082 0.490195
0.336298 -0.476154 -0.509108
