ply
format ascii 1.0
comment sampling resolution: 0.01
comment noise level: 0.01
comment Created by Open3D
element vertex 1670
property double x
property double y
property double z
end_header
-0.507878 -0.284011 0.270305
-0.29133 0.510571 0.285676
-0.284086 -0.493059 0.289999
-0.490384 -0.274401 0.292179
-0.280064 0.495343 0.297855
-0.272762 -0.49741 0.300452
0.518289 -0.266092 0.288538
-0.50722 -0.270993 0.306067
-0.283648 -0.506463 0.305897
-0.508332 -0.294726 0.30421
-0.279095 0.312309 0.501393
-0.276405 0.312169 -0.500592
-0.284725 0.501675 0.32016
-0.287231 -0.491706 0.320036
0.507604 -0.269113 0.329037
-0.289547 0.340556 -0.519942
-0.284579 0.504898 0.32945
-0.279918 -0.514087 0.342425
0.499117 -0.263594 0.327283
-0.498046 -0.279854 0.327917
-0.278717 0.35073 -0.487007
-0.264133 0.495553 0.340742
-0.268773 -0.501401 0.336629
0.509269 -0.271032 0.338372
-0.49982 -0.272736 0.333629
-0.300888 0.346756 0.496395
-0.268832 0.366345 -0.503328
-0.255295 0.502672 0.354292
-0.274341 -0.506113 0.345222
-0.271788 0.357775 -0.510562
-0.27628 -0.50869 0.366535
0.495261 -0.271833 0.391792
-0.259878 0.380805 -0.495504
-0.263175 0.497171 0.350005
-0.27934 -0.512943 0.3575
-0.28225 0.384138 -0.503797
-0.292436 0.491946 0.387627
-0.282129 -0.499688 0.381554
0.505922 -0.269382 0.359413
-0.514012 -0.273118 0.368682
-0.272745 0.386204 -0.504188
-0.264843 0.507204 0.386851
-0.279401 -0.506625 0.361764
0.510262 -0.276414 0.405053
-0.287496 0.406704 -0.502141
-0.274083 0.490729 0.394831
0.496585 -0.273469 0.389006
-0.50692 -0.278376 0.395662
-0.274355 0.401732 0.485168
-0.2756 0.404613 -0.498606
-0.268894 0.494601 0.407482
-0.256099 -0.490245 0.415977
0.511898 -0.290755 0.414385
-0.277217 0.404135 0.516688
-0.273148 0.418539 -0.500543
-0.275256 0.526227 0.399158
-0.266597 -0.486597 0.404483
0.500321 -0.280798 0.415987
-0.292579 0.428702 0.504652
-0.292778 0.427151 -0.503966
-0.272047 0.509505 0.43245
-0.288335 -0.508881 0.419076
0.505382 -0.258266 0.430672
-0.487545 -0.264508 0.425758
-0.278251 0.455916 0.502812
-0.284601 0.44148 -0.510177
-0.259898 0.506667 0.432289
-0.284921 -0.488961 0.434829
0.50692 -0.284575 0.439361
-0.497594 -0.27703 0.446314
-0.275975 0.451473 0.494141
-0.294962 0.44898 -0.499874
-0.265217 0.48796 0.461001
-0.275918 -0.502124 0.441815
0.517526 -0.25376 0.441496
-0.502364 -0.286901 0.46535
-0.280851 0.452171 0.501724
-0.281831 0.447679 -0.503677
-0.27919 0.514987 0.465044
-0.276705 -0.486216 0.476886
0.496317 -0.262014 0.451249
-0.286193 0.475138 0.498463
-0.275397 0.494377 0.475065
-0.268476 -0.493493 0.455335
0.505956 -0.279981 0.466415
-0.478074 -0.265763 0.469684
-0.276162 0.47401 0.489341
-0.284367 0.484185 -0.499603
-0.261043 0.495322 0.477881
-0.269458 -0.495777 0.486724
0.50419 -0.289525 0.482932
-0.514755 -0.273507 0.48053
-0.27032 0.495116 0.495446
-0.28779 0.491403 -0.519797
-0.272887 0.495635 0.477565
-0.27409 -0.492817 0.475175
0.513479 -0.283344 0.499847
-0.485529 -0.299685 0.488366
-0.265516 0.492537 0.50406
-0.275523 0.510423 -0.506623
-0.269951 0.519194 0.48365
-0.299346 -0.503444 0.477814
0.509789 -0.279107 0.489323
-0.511554 -0.280632 0.496417
-0.253939 -0.511488 0.500661
-0.261321 -0.508831 -0.508768
-0.265616 0.490561 -0.488778
-0.271746 -0.500427 -0.496019
0.512212 -0.277379 -0.48969
-0.497803 -0.273956 -0.484509
-0.264233 -0.490689 0.484012
-0.267019 -0.486197 -0.48409
-0.26387 0.502965 -0.497935
0.503785 -0.259737 -0.499232
-0.494029 -0.268633 -0.489379
-0.299146 -0.485962 0.517279
-0.26313 -0.488226 -0.487226
-0.263789 0.483564 -0.48174
-0.263656 -0.507578 -0.467731
-0.497067 -0.270126 -0.466244
-0.265544 -0.466376 -0.482041
-0.271484 0.493557 -0.460337
-0.27612 -0.503337 -0.487948
0.493459 -0.264589 -0.46858
-0.482962 -0.277384 -0.468334
-0.272078 -0.45662 0.509077
-0.27429 -0.444249 -0.488715
-0.282226 0.497706 -0.465588
-0.260866 -0.479769 -0.456871
-0.512845 -0.263973 -0.441928
-0.255947 -0.450098 -0.481102
-0.248307 0.486656 -0.45296
-0.270912 -0.50011 -0.437915
0.504608 -0.264311 -0.446966
-0.491248 -0.255867 -0.457161
-0.280566 -0.427838 0.503065
-0.26819 -0.445298 -0.486748
-0.271087 0.494588 -0.440638
-0.265655 -0.440969 0.495184
-0.254916 -0.409664 -0.519339
-0.258711 0.509394 -0.424365
-0.273222 -0.488104 -0.430283
-0.505581 -0.269864 -0.423388
-0.265653 -0.434837 0.496918
-0.261413 -0.421162 -0.490769
-0.274502 0.508197 -0.405299
-0.266763 -0.503172 -0.407403
0.493438 -0.276752 -0.432681
-0.489527 -0.283177 -0.414068
-0.258622 -0.431285 0.491698
-0.275902 -0.41796 -0.509012
-0.270014 0.505974 -0.421868
-0.286852 -0.500093 -0.407275
0.499497 -0.270287 -0.4278
-0.51376 -0.279021 -0.408532
-0.289177 0.504123 -0.402317
-0.274369 -0.488024 -0.386761
-0.240806 -0.387565 0.505675
-0.254941 -0.391023 -0.487425
-0.251849 0.508125 -0.386749
0.497223 -0.270642 -0.383438
-0.265098 -0.372655 0.515693
-0.247016 -0.37749 -0.506143
-0.253771 0.491216 -0.375945
-0.266061 -0.498471 -0.369807
0.499898 -0.275351 -0.373085
-0.490623 -0.270847 -0.387502
-0.255877 -0.35369 0.492138
-0.274205 -0.512011 -0.378753
0.496163 -0.24461 -0.372976
-0.278749 -0.356904 0.489653
-0.263375 -0.358253 -0.497371
-0.267374 0.489845 -0.359871
0.487973 -0.262153 -0.351149
-0.492081 -0.254316 -0.374644
-0.264195 -0.33793 0.50311
-0.492289 -0.259958 -0.35037
-0.267741 -0.327285 0.492098
-0.275325 0.515626 -0.358122
-0.276279 -0.530625 -0.350693
-0.265087 -0.325221 0.50019
-0.262385 0.477328 -0.334338
-0.285254 -0.498667 -0.327306
0.486646 -0.259335 -0.324626
-0.493922 -0.264265 -0.336677
-0.254615 -0.325088 0.507198
-0.260462 -0.338079 -0.499509
-0.270494 0.513473 -0.312163
-0.505261 -0.249127 -0.305086
0.48825 -0.272953 -0.317961
-0.277141 -0.290165 -0.494727
-0.274559 0.4925 -0.291576
-0.264798 -0.498736 -0.301861
-0.496577 -0.266237 -0.304515
-0.262248 -0.291634 -0.505277
-0.26968 0.499856 -0.300078
0.498686 -0.287159 -0.301165
-0.276473 -0.266856 0.494197
-0.288079 -0.26589 -0.516674
-0.268521 0.492589 -0.269909
0.489972 -0.282416 -0.281602
-0.275079 -0.28435 0.500033
-0.276143 -0.246447 -0.508845
-0.257537 -0.25318 0.510613
-0.269601 -0.238328 -0.52086
-0.274208 0.481732 -0.227353
-0.262801 0.478952 -0.22587
-0.269872 -0.214331 0.496174
-0.272111 -0.230762 -0.500633
-0.25544 -0.495826 -0.207063
0.482848 -0.277365 -0.195882
-0.51297 -0.269924 -0.22836
-0.26334 -0.221843 0.492819
-0.280056 -0.196196 -0.501082
-0.277625 -0.489444 -0.196629
-0.265768 -0.18534 -0.505403
-0.283426 0.162371 -0.488321
-0.262007 0.197497 0.511328
-0.267494 0.200754 0.515993
-0.259735 0.492897 0.203042
-0.247268 0.225832 0.48928
-0.280764 -0.507739 0.24407
0.49677 -0.256033 0.24288
-0.271069 -0.51988 0.246074
0.493005 -0.268972 0.2445
-0.286181 0.25219 0.509105
-0.272913 0.507684 0.263226
0.488856 -0.259546 0.272182
-0.492513 -0.284031 0.284792
-0.267367 0.271742 0.490392
-0.279772 0.273951 -0.487055
-0.28587 0.285939 0.51228
-0.258895 0.285333 -0.48413
-0.28231 -0.513696 0.311932
0.489491 -0.271878 0.282206
-0.268534 0.497267 0.305778
-0.260544 -0.482796 0.318278
0.504226 -0.269269 0.314966
-0.51142 -0.250584 0.309061
0.491595 -0.28095 0.313936
-0.485613 -0.256216 0.334067
-0.2548 0.309531 0.514612
-0.262317 0.496913 0.322306
-0.272687 0.336208 -0.498137
0.499536 -0.275843 0.346737
-0.251885 0.370446 0.485621
-0.263647 0.34238 -0.503978
0.504139 -0.25308 0.327325
-0.270241 0.498777 0.354095
-0.493066 -0.286483 0.357894
-0.256505 0.384975 0.499257
-0.291775 0.386017 -0.480722
0.511519 -0.263243 0.370909
-0.268791 0.386944 0.502066
-0.264966 0.395722 -0.518179
0.490822 -0.257537 0.396032
-0.476957 -0.261445 0.382161
-0.254591 0.403202 0.496146
-0.267742 0.408044 -0.482953
-0.259928 -0.499209 0.396953
-0.269883 0.405413 0.505096
-0.256937 0.496215 0.415749
-0.27847 -0.491774 0.412254
0.509996 -0.256557 0.396599
-0.506023 -0.266761 0.409319
-0.2691 0.424836 0.5048
-0.269215 0.497587 0.42345
-0.266562 -0.501627 0.421378
0.500416 -0.273961 0.421524
-0.502735 -0.27237 0.418613
0.518816 -0.259246 0.422316
-0.485087 -0.263379 0.416005
-0.270227 0.445508 0.489143
-0.251149 0.445916 -0.5036
-0.266585 0.494453 0.4251
-0.269282 -0.498319 0.447801
0.502812 -0.268239 0.448523
-0.493208 -0.26476 0.438041
-0.261413 0.491698 0.431337
-0.248235 -0.503573 0.449535
0.477161 -0.283144 0.449645
-0.493847 -0.258004 0.453153
-0.266638 0.477589 0.507393
-0.259655 0.447074 -0.480286
-0.277399 0.505982 0.472246
-0.259276 -0.491815 0.464408
0.509675 -0.263764 0.457316
-0.492859 -0.273665 0.455265
-0.272116 0.459702 0.50448
-0.277706 0.475192 -0.509422
-0.240497 0.507444 0.455422
-0.269307 -0.510017 0.451291
0.491983 -0.259001 0.490747
-0.504843 -0.267628 0.482476
-0.251291 0.477727 0.502725
-0.277155 0.490712 -0.501538
-0.279262 0.505878 0.488698
0.505754 -0.267371 0.47587
-0.49322 -0.268126 0.485143
-0.275507 0.496541 0.493315
-0.266697 0.470567 -0.506276
-0.289055 0.496491 0.472623
-0.270158 -0.498096 0.490742
0.474469 -0.286257 0.491742
-0.49627 -0.260585 0.492763
-0.259393 0.50951 0.488227
-0.274785 0.502794 -0.492905
-0.269895 0.492214 0.509704
-0.275843 -0.526841 0.490985
0.506273 -0.265872 0.498725
-0.492286 -0.256062 0.492887
-0.259589 -0.490312 0.499468
-0.26046 -0.482048 -0.487602
-0.260114 0.490139 -0.502721
-0.265539 -0.502857 -0.505041
0.475877 -0.241107 -0.520754
-0.504865 -0.243705 -0.505161
-0.27039 -0.485005 0.510349
-0.275134 -0.489719 -0.498811
-0.246613 0.492115 -0.495978
-0.257291 -0.499042 -0.496259
0.48117 -0.253305 -0.506865
-0.505613 -0.265078 -0.491315
-0.266291 -0.487465 0.480603
-0.242286 -0.470323 -0.504746
-0.254513 0.493401 -0.480442
0.498612 -0.257248 -0.497522
-0.493264 -0.248259 -0.487784
-0.269377 -0.468442 0.485833
-0.261143 -0.458316 -0.487356
-0.242909 0.492098 -0.457449
-0.260741 -0.500985 -0.477105
0.519357 -0.265797 -0.477779
-0.496267 -0.252627 -0.47619
-0.262987 -0.461705 0.49815
-0.267562 0.518316 -0.448864
-0.262469 -0.495175 -0.468899
0.486772 -0.276026 -0.45001
-0.493557 -0.258559 -0.464327
-0.25965 -0.464365 -0.488374
-0.26128 0.483774 -0.46108
-0.24531 -0.516451 -0.451521
0.503786 -0.272998 -0.450133
-0.49735 -0.26726 -0.450248
-0.239068 -0.436832 0.516913
-0.264293 0.520991 -0.454896
-0.243118 -0.485571 -0.437959
0.514183 -0.249712 -0.444182
-0.498263 -0.273695 -0.438289
-0.269479 -0.442815 0.501464
-0.274964 -0.422946 -0.496497
-0.246237 0.500078 -0.426993
-0.262171 -0.509806 -0.415164
-0.501415 -0.24109 -0.43566
-0.254228 -0.439047 0.492517
-0.268411 -0.440221 -0.510617
-0.244104 0.495929 -0.429743
0.50409 -0.269742 -0.403605
-0.251547 -0.412968 0.500472
-0.240627 -0.404494 -0.528389
-0.262171 0.503159 -0.412778
-0.254487 -0.513552 -0.432785
0.511902 -0.276979 -0.405962
-0.511411 -0.253029 -0.391532
-0.274798 -0.395593 0.501629
-0.261031 -0.403824 -0.51796
-0.259201 0.496704 -0.402197
-0.265995 -0.520477 -0.401116
0.495842 -0.270838 -0.398899
-0.497677 -0.230239 -0.388162
-0.244198 -0.389971 0.481449
-0.267043 -0.383914 -0.5079
-0.267815 0.492314 -0.387955
0.501056 -0.245832 -0.368509
-0.500908 -0.277816 -0.402354
-0.258031 0.480323 -0.396958
-0.500064 -0.279511 -0.383053
-0.251665 -0.374373 0.493302
-0.252384 -0.383711 -0.509514
0.49096 -0.27418 -0.346784
-0.263456 -0.491216 -0.348701
-0.478512 -0.248675 -0.369396
-0.249279 -0.35422 0.501759
-0.247221 -0.521758 -0.352138
-0.258295 -0.344098 0.51008
-0.252965 -0.368323 -0.499092
-0.259791 0.487028 -0.340413
-0.502883 -0.249028 -0.338205
-0.254498 0.485774 -0.315447
0.505449 -0.252251 -0.333574
-0.261045 -0.323926 -0.497899
-0.246575 0.508231 -0.330378
-0.48185 -0.262052 -0.308702
-0.248839 -0.312936 0.509572
-0.259071 0.507209 -0.309048
-0.486283 -0.253642 -0.316226
-0.246563 -0.290513 -0.490344
-0.250919 -0.509614 -0.29178
-0.253583 0.498868 -0.288461
-0.273175 -0.283715 0.501793
-0.264636 -0.288134 -0.496706
-0.239604 0.480849 -0.270911
-0.274287 -0.504562 -0.274489
-0.272616 -0.261024 0.51464
-0.272968 0.494563 -0.272469
-0.250285 -0.491671 -0.267614
-0.253728 -0.26262 0.505249
-0.260214 -0.26366 -0.501771
-0.250023 -0.504106 -0.243323
-0.492397 -0.246891 -0.232447
-0.265514 -0.230498 -0.50308
0.490428 -0.262512 -0.195025
-0.48838 -0.248866 -0.17998
-0.254712 0.491605 0.195857
-0.502139 -0.245477 0.20842
-0.286354 -0.506424 0.213594
-0.249831 0.51376 0.221361
-0.241692 -0.481995 0.214045
-0.247885 0.229855 -0.491839
-0.252373 0.50966 0.261427
0.511513 -0.251178 0.252038
-0.265298 0.27517 0.487501
-0.238056 0.487626 0.28604
-0.243913 -0.487603 0.272759
-0.245372 0.289916 0.495728
-0.261056 0.272831 -0.507315
-0.252986 0.51262 0.28957
0.495099 -0.265899 0.296858
-0.261233 0.300271 0.493523
-0.259542 0.297077 -0.513588
-0.260482 0.309907 -0.523357
0.485763 -0.281381 0.3124
-0.50963 -0.240335 0.310858
-0.272005 0.312464 0.483176
-0.265296 0.310773 -0.490359
-0.262095 0.498267 0.31981
-0.266709 -0.499902 0.307694
0.50541 -0.248713 0.321252
-0.497425 -0.268422 0.308782
-0.271898 0.319973 0.509613
-0.259796 0.33259 -0.492895
-0.243677 -0.508926 0.320847
-0.245921 0.506031 0.317687
0.496876 -0.250231 0.337611
-0.253974 0.354784 -0.49847
-0.279585 -0.492356 0.35701
-0.503794 -0.244549 0.329183
-0.27259 0.364835 0.508335
-0.249288 0.496512 0.357896
-0.254433 -0.49494 0.353209
0.495191 -0.256302 0.3655
-0.484497 -0.253189 0.364095
-0.249367 0.371189 0.496204
-0.265687 0.509059 0.36849
-0.270817 0.365599 -0.504431
-0.253166 0.49131 0.382459
-0.265627 -0.505333 0.387257
0.48456 -0.258194 0.3824
-0.490909 -0.251004 0.380049
-0.263471 0.381196 0.507964
-0.261098 0.38285 -0.495029
-0.251793 0.49632 0.386938
-0.244972 -0.482984 0.374704
-0.503008 -0.254549 0.377992
-0.263155 0.376051 0.498711
-0.246262 0.380905 -0.499296
-0.260905 0.495192 0.416043
-0.277261 -0.514722 0.396384
0.502045 -0.252958 0.414793
-0.490777 -0.255865 0.381388
-0.274168 0.403359 0.484181
-0.264364 0.416427 -0.503703
-0.268856 0.490074 0.423337
-0.244008 -0.484995 0.420312
-0.514269 -0.254965 0.393247
-0.252924 0.420469 -0.512871
0.495527 -0.272335 0.416321
-0.497628 -0.265101 0.437195
0.514163 -0.236789 0.428415
-0.50523 -0.259138 0.4439
-0.272165 0.442589 -0.492338
-0.245617 0.498661 0.427848
-0.266795 -0.500089 0.44299
0.510801 -0.250157 0.438611
-0.490907 -0.268027 0.427396
-0.248311 0.452818 0.50297
-0.253161 0.493853 0.438625
-0.245005 -0.507267 0.434547
0.499997 -0.252342 0.458289
-0.503033 -0.282775 0.453053
-0.249436 0.464121 0.510604
-0.254627 0.470885 -0.508405
-0.260108 0.501682 0.463322
-0.252333 -0.510221 0.447751
0.491274 -0.259997 0.464434
-0.497719 -0.261224 0.47484
-0.251433 0.471921 0.493658
-0.256309 0.470167 -0.508214
-0.267932 0.49315 0.459534
0.48467 -0.261493 0.454246
-0.511806 -0.276962 0.468373
-0.258427 0.48695 0.496833
-0.253248 0.475628 -0.509862
-0.262787 0.513797 0.485416
-0.265104 -0.515644 0.484133
0.509371 -0.245967 0.4812
-0.498983 -0.272276 0.483103
-0.269046 0.509769 0.509348
-0.257252 0.492426 -0.507557
-0.268457 0.508891 0.494939
-0.249239 -0.497517 0.48132
0.512572 -0.253774 0.497224
-0.494749 -0.256473 0.488584
-0.246745 0.490017 0.494866
-0.257305 0.511016 -0.510938
-0.256401 0.500719 0.507275
-0.254202 -0.519326 0.492894
0.495416 -0.249455 0.497426
-0.525331 -0.271011 0.498258
-0.254838 -0.499364 0.505723
-0.240707 -0.498521 -0.49042
-0.24817 0.486747 -0.487201
-0.260089 -0.506663 -0.500277
0.477187 -0.246052 -0.504518
-0.496371 -0.247633 -0.518168
-0.254707 -0.497389 0.489278
-0.238254 -0.506595 -0.495005
-0.255625 0.505457 -0.488042
-0.258454 -0.486706 -0.482088
-0.503063 -0.253375 -0.487646
-0.26091 -0.457707 0.505128
-0.242962 -0.480789 -0.484257
0.50273 -0.249618 -0.482786
-0.496526 -0.24933 -0.471737
-0.232149 -0.490233 0.500089
-0.234856 -0.478893 -0.514435
-0.240616 0.518119 -0.481949
-0.236353 -0.499137 -0.45375
0.506995 -0.237086 -0.471685
-0.504538 -0.244883 -0.471352
-0.239036 -0.47753 0.486561
-0.250287 -0.466213 -0.486288
-0.237396 0.496774 -0.465961
-0.237447 -0.501325 -0.438081
0.510704 -0.24417 -0.449319
-0.489662 -0.256487 -0.483346
-0.229851 -0.446051 -0.510866
-0.251975 0.49898 -0.455672
-0.255491 -0.49312 -0.455691
0.495213 -0.251799 -0.44718
-0.494511 -0.254716 -0.43545
-0.255507 0.481901 -0.439771
-0.235985 -0.48187 -0.445024
0.496117 -0.235052 -0.428826
-0.508913 -0.258545 -0.436983
-0.242909 -0.433425 0.499435
-0.235947 0.492977 -0.416494
-0.235643 -0.512371 -0.432785
0.496681 -0.242704 -0.422211
-0.500765 -0.248184 -0.428312
-0.251307 -0.424378 0.504931
-0.248049 -0.415411 -0.505768
-0.243427 0.501316 -0.42452
-0.25228 -0.506013 -0.419859
-0.496574 -0.243173 -0.399046
-0.253327 -0.41617 0.495807
-0.249631 -0.404817 -0.492046
0.497265 -0.244875 -0.39928
-0.498307 -0.242203 -0.400758
-0.254659 0.48628 -0.406817
0.499608 -0.261231 -0.411348
-0.497561 -0.239057 -0.398521
-0.238961 -0.390089 0.483388
-0.23244 -0.405555 -0.496564
-0.250183 -0.489896 -0.382552
-0.498045 -0.244853 -0.393743
-0.258359 -0.380329 -0.476616
0.512573 -0.269061 -0.379895
-0.256994 -0.353046 0.504461
-0.250828 -0.365897 -0.496878
-0.241489 -0.508201 -0.363331
0.51421 -0.252745 -0.355495
-0.249996 -0.358072 0.506333
-0.243602 -0.35931 -0.50156
-0.244478 0.487064 -0.369311
0.515773 -0.228919 -0.361281
-0.504618 -0.231592 -0.366099
-0.229841 -0.357841 0.49926
0.516278 -0.242683 -0.33231
-0.504146 -0.24107 -0.334472
-0.247269 -0.340957 0.490421
-0.239603 -0.349825 -0.508309
-0.25969 0.477289 -0.357437
0.519977 -0.24995 -0.325855
-0.249632 -0.330689 0.489107
-0.233916 -0.32482 -0.487831
-0.25509 0.526487 -0.353296
0.493142 -0.248311 -0.332947
0.493196 -0.243844 -0.296347
-0.502882 -0.262759 -0.315091
-0.24224 -0.308866 -0.502114
-0.251058 -0.298743 0.506675
-0.258404 -0.278479 -0.508446
-0.240351 -0.27372 -0.517809
-0.245004 -0.500765 -0.278541
0.502013 -0.244263 -0.271565
-0.48709 -0.241549 -0.304682
-0.24505 -0.502498 -0.265028
0.477393 -0.267962 -0.255084
-0.244626 0.491427 -0.260897
0.513921 -0.247196 -0.262525
-0.50948 -0.260742 -0.245486
-0.242875 -0.238849 -0.48646
0.495533 -0.244383 -0.240719
-0.504494 -0.265465 -0.191888
-0.256754 0.166445 -0.491962
-0.243761 0.188286 0.496586
-0.244696 0.230456 0.492851
0.498427 -0.241052 0.234577
-0.24663 0.254576 -0.510411
0.512502 -0.256647 0.253414
-0.228661 0.257751 0.493496
-0.251805 -0.49841 0.277341
0.497848 -0.267212 0.251939
-0.24422 0.286261 -0.503475
-0.224368 0.494513 0.288415
-0.234617 0.287579 0.498296
-0.263026 0.498524 0.291882
-0.2605 -0.498189 0.289157
0.511889 -0.257044 0.286496
-0.229353 0.298025 0.517521
0.49082 -0.239384 0.310354
-0.501668 -0.253065 0.309892
0.52041 -0.249284 0.325239
-0.49625 -0.260736 0.316851
-0.252569 0.329007 0.518682
-0.249491 0.339571 -0.513023
-0.245044 0.516492 0.341802
-0.257386 -0.506617 0.339961
0.503209 -0.24676 0.335909
-0.228786 0.501677 0.350646
0.507785 -0.254907 0.356538
-0.510018 -0.231948 0.360175
-0.239262 0.360472 0.49696
-0.25633 0.362936 -0.49829
-0.27072 0.471794 0.357499
-0.495246 -0.251378 0.369155
-0.252997 0.34817 -0.484474
-0.247857 0.500923 0.367282
-0.509769 -0.24571 0.368221
-0.229964 0.370617 -0.515976
-0.26345 0.499642 0.389868
-0.248797 -0.529923 0.391859
0.492986 -0.247261 0.358219
-0.501242 -0.257789 0.381453
-0.243564 0.390061 0.506096
-0.259017 0.372101 -0.503806
-0.240683 0.493811 0.381775
0.504603 -0.249693 0.400508
-0.501975 -0.254732 0.389779
-0.248847 0.401658 0.487321
-0.262168 0.407813 -0.496211
-0.237111 -0.505206 0.379835
-0.512956 -0.260798 0.392113
-0.253815 0.419123 0.488427
-0.25253 0.412991 -0.495645
-0.258145 -0.503141 0.411048
0.50139 -0.246724 0.392611
-0.505255 -0.233531 0.407795
-0.247552 0.413665 0.515416
-0.234034 0.406414 -0.490375
-0.258589 0.493788 0.41801
-0.505371 -0.258035 0.408242
-0.249194 0.430087 0.497223
-0.23934 0.423959 -0.511898
-0.260857 0.510315 0.439124
-0.252505 -0.494993 0.429184
-0.499201 -0.252783 0.424222
-0.243504 0.43151 0.503634
-0.245457 0.502079 0.430973
-0.25181 -0.505743 0.442573
0.497856 -0.245601 0.435196
-0.488135 -0.245645 0.435622
-0.251506 0.444649 0.495016
-0.242644 0.453929 -0.491352
-0.248111 0.505772 0.441633
-0.245887 -0.491952 0.454694
0.496182 -0.241312 0.450252
-0.503057 -0.25645 0.445574
-0.251556 0.45906 0.514749
-0.242663 0.454095 -0.502524
-0.251838 0.500386 0.456098
-0.239072 -0.505792 0.473848
0.514482 -0.244898 0.466026
-0.49798 -0.246655 0.470867
-0.247601 0.47572 0.507053
-0.245058 0.479679 -0.502755
-0.2488 0.493896 0.481609
-0.242354 -0.513086 0.455282
0.513793 -0.269204 0.472101
-0.242482 0.474086 0.503515
-0.245722 0.490109 -0.491547
-0.247255 0.503839 0.470134
-0.254066 -0.503149 0.476579
0.50828 -0.232193 0.481047
-0.506429 -0.249162 0.466589
-0.230583 0.483094 0.477655
-0.23644 0.487319 -0.492855
-0.252294 0.484602 0.505983
-0.245352 -0.498656 0.491675
0.503884 -0.240103 0.500419
-0.495218 -0.248944 0.492245
-0.242854 0.51991 0.495847
-0.223101 0.488589 -0.50653
-0.265151 0.508617 0.493788
-0.263172 -0.511059 0.499057
0.500461 -0.263651 0.51257
-0.480247 -0.241093 0.517596
-0.238265 -0.489998 0.477046
-0.238409 -0.512193 -0.493118
-0.234613 0.499081 -0.483323
-0.228417 -0.500639 -0.49319
0.48678 -0.246983 -0.514924
-0.497182 -0.242418 -0.50206
-0.238507 -0.488524 0.509243
-0.234815 -0.499649 -0.497278
-0.235339 0.490649 -0.491962
-0.243223 -0.494958 -0.495673
0.505896 -0.212323 -0.497963
-0.505088 -0.239423 -0.479843
-0.226301 -0.472109 0.492795
-0.222189 -0.486936 -0.499026
-0.239839 0.498197 -0.477241
-0.231757 -0.511008 -0.471067
0.491472 -0.260775 -0.478866
-0.491373 -0.231109 -0.480452
-0.245193 -0.464482 0.50588
-0.250405 0.487633 -0.480534
-0.242904 -0.496887 -0.46564
0.482682 -0.252532 -0.463716
-0.490575 -0.249124 -0.450113
-0.24842 -0.476035 0.50934
-0.238913 -0.482353 -0.4947
-0.234167 0.501879 -0.456321
-0.230526 -0.496587 -0.463586
0.495857 -0.238748 -0.461988
-0.23773 -0.434679 -0.502255
-0.23006 -0.497762 -0.459743
0.4925 -0.238856 -0.435103
-0.52051 -0.234 -0.449284
-0.224136 -0.450016 0.478229
-0.227807 -0.428855 -0.471382
-0.252586 0.496904 -0.436729
-0.237173 -0.50662 -0.428602
0.504449 -0.251513 -0.427352
-0.489069 -0.235917 -0.437419
-0.228632 -0.412314 0.501202
-0.239127 -0.416883 -0.497571
-0.241409 0.510804 -0.425587
-0.238525 -0.523788 -0.437916
-0.24526 -0.413849 0.509898
-0.229743 -0.410932 -0.491202
-0.232926 0.516741 -0.431835
-0.24343 -0.508696 -0.412134
0.516537 -0.235072 -0.42212
-0.498473 -0.237423 -0.420383
-0.243642 -0.41208 -0.508904
-0.253824 0.496971 -0.419784
-0.240511 -0.52035 -0.403353
0.491577 -0.235314 -0.39205
-0.492813 -0.237258 -0.409532
-0.240507 -0.409604 0.491869
-0.247451 0.505903 -0.396813
-0.25822 -0.485913 -0.392159
0.49187 -0.219356 -0.397922
-0.498151 -0.236074 -0.408978
-0.502339 -0.239958 -0.387852
-0.237224 -0.388871 0.487049
-0.236661 -0.389095 -0.505007
-0.491775 -0.238585 -0.379579
-0.224772 0.510686 -0.382897
-0.234953 -0.492232 -0.379039
0.495713 -0.26297 -0.388711
-0.503977 -0.246494 -0.375667
-0.238674 -0.355997 0.489633
-0.244778 -0.369322 -0.497726
-0.221747 0.498524 -0.338482
-0.489992 -0.227545 -0.359086
-0.244238 -0.363934 -0.499679
-0.22879 0.498804 -0.359431
-0.251784 -0.325353 0.500873
-0.241521 -0.497964 -0.343278
-0.499535 -0.228128 -0.333533
-0.243218 -0.498323 -0.323388
-0.50535 -0.243452 -0.333858
-0.227271 -0.487485 -0.310726
-0.229181 -0.295571 -0.503329
-0.236251 0.469766 -0.319673
-0.247579 -0.494951 -0.298546
0.492156 -0.238071 -0.304226
-0.504874 -0.238832 -0.29175
-0.236915 -0.285082 0.513675
0.503968 -0.240744 -0.288035
0.507276 -0.231397 -0.286374
-0.506578 -0.233768 -0.274457
-0.22356 -0.264612 -0.504836
-0.241953 0.499122 -0.263422
0.494837 -0.2423 -0.267073
-0.235368 -0.246306 -0.509929
-0.229668 0.503642 -0.243211
-0.24546 0.498977 -0.231807
0.502187 -0.244302 -0.241446
-0.230923 0.492761 -0.218246
-0.230238 0.500205 0.217366
-0.501765 -0.254725 0.212866
0.511329 -0.250231 0.249333
-0.224713 0.508618 0.26629
0.489637 -0.239118 0.26326
-0.514094 -0.248005 0.270866
-0.26406 0.516915 0.279266
-0.239395 0.276949 0.500539
-0.213167 0.489299 0.277537
-0.24166 0.503152 0.287539
0.489136 -0.242272 0.285241
-0.21841 0.309271 0.490483
-0.232529 0.516235 0.28314
-0.236122 0.298958 -0.492066
-0.230963 0.504398 0.308712
-0.225993 -0.496808 0.316871
-0.242264 0.306997 -0.499367
-0.244847 0.514234 0.309165
-0.230235 0.331213 0.510746
-0.223084 0.339471 -0.492471
-0.248331 0.325175 -0.517289
-0.248256 -0.515466 0.334172
-0.505197 -0.258495 0.354135
-0.487995 -0.228764 0.359898
-0.493277 -0.227122 0.370327
-0.239344 0.383987 0.508945
-0.251926 -0.506734 0.377893
-0.499065 -0.248175 0.369639
-0.24046 0.368423 0.507214
-0.24001 0.374201 -0.495683
-0.244498 0.484696 0.387234
-0.233604 -0.496168 0.394333
-0.51625 -0.244484 0.373286
-0.23134 0.3936 0.496641
-0.235661 0.376463 -0.485531
-0.237092 0.495396 0.385412
0.492229 -0.228389 0.387095
-0.490081 -0.221629 0.385999
-0.237274 0.392565 -0.502243
-0.228376 -0.509318 0.399233
-0.241243 0.396603 -0.497338
-0.233206 0.502317 0.407671
-0.252875 -0.498806 0.40683
0.497705 -0.252702 0.425449
-0.498065 -0.228705 0.414316
-0.241239 0.418875 0.50567
-0.235889 0.415018 -0.514781
-0.244042 -0.479368 0.420082
0.481984 -0.246438 0.410423
-0.498091 -0.225403 0.41025
-0.24405 0.43274 0.496488
-0.234573 -0.49963 0.411203
0.498291 -0.224152 0.430612
-0.494347 -0.239042 0.436295
-0.244485 0.427757 0.511487
-0.239457 0.459243 -0.502286
-0.236807 0.517244 0.434073
-0.235418 -0.5244 0.4601
-0.519805 -0.232577 0.426299
-0.228835 0.449565 0.510524
-0.236542 0.443613 -0.510216
-0.246335 0.487805 0.447502
-0.237091 -0.508787 0.459162
0.503487 -0.233728 0.453898
-0.499707 -0.231321 0.454054
-0.228839 0.45428 0.511132
-0.248654 0.457619 -0.495994
-0.256755 0.492471 0.472135
-0.243461 -0.497545 0.453186
-0.234284 0.461689 0.511113
-0.232216 0.499173 0.461438
-0.23612 -0.49039 0.481279
0.501889 -0.243597 0.458586
-0.486625 -0.225964 0.458637
-0.24547 0.486877 0.505792
-0.231359 0.483364 -0.512724
-0.232862 0.482437 0.492361
-0.217057 -0.512827 0.49004
0.490143 -0.247828 0.478196
-0.236542 0.503678 0.508799
-0.252539 0.494071 -0.512963
-0.212222 0.498726 0.491483
-0.249077 -0.502724 0.514682
0.498481 -0.241334 0.490234
-0.497887 -0.229003 0.484542
-0.243857 0.514959 0.508726
-0.232187 0.500393 -0.496154
-0.239876 0.517246 0.499004
-0.215231 -0.506188 0.484624
0.503748 -0.240895 0.495257
-0.474698 -0.232972 0.518528
-0.236813 -0.49244 0.496972
-0.226609 -0.491306 -0.495353
-0.231456 0.500254 -0.491245
-0.222054 -0.493436 -0.480482
0.513807 -0.24607 -0.505857
-0.500653 -0.224991 -0.504603
-0.23562 -0.490878 0.500386
-0.226475 -0.480436 -0.489132
-0.222621 0.498085 -0.504481
-0.234348 -0.492671 -0.501079
0.491467 -0.226774 -0.479332
-0.487103 -0.237641 -0.496369
-0.226071 -0.491954 0.49759
-0.230789 -0.494546 -0.496755
-0.225161 0.497517 -0.480849
-0.232662 -0.527793 -0.488911
0.502015 -0.228462 -0.48474
-0.499751 -0.216 -0.481209
-0.223406 -0.47735 0.49196
-0.214685 -0.458542 -0.479387
-0.224056 0.497152 -0.479017
0.496248 -0.217389 -0.462915
-0.5123 -0.219204 -0.471595
-0.230908 -0.475912 0.497802
-0.242549 0.503422 -0.447601
-0.241434 -0.505076 -0.46627
0.503772 -0.230804 -0.462087
-0.49875 -0.21426 -0.453919
-0.236679 -0.446943 -0.494074
-0.20408 0.4993 -0.456006
-0.22362 -0.506379 -0.457152
0.489043 -0.21135 -0.430632
-0.509705 -0.239184 -0.47054
-0.224458 -0.430776 0.49667
-0.228923 -0.437867 -0.506212
-0.242283 0.499663 -0.432548
0.484262 -0.224825 -0.426488
-0.509438 -0.241153 -0.442786
-0.235329 -0.437303 -0.503922
-0.23089 -0.4755 -0.430577
0.509124 -0.229684 -0.437722
-0.24346 -0.437077 0.493344
-0.254794 -0.433298 -0.501975
-0.221972 -0.493861 -0.411416
0.505156 -0.22166 -0.41624
-0.4975 -0.210767 -0.417748
-0.236956 -0.401066 0.501818
-0.228302 -0.40964 -0.498594
-0.236909 -0.498845 -0.425552
-0.22665 -0.403335 0.505534
-0.215277 -0.407347 -0.502692
-0.499999 -0.239569 -0.420978
-0.210711 -0.393331 0.508036
-0.223413 0.509096 -0.372452
-0.236257 -0.494194 -0.378322
0.484279 -0.222151 -0.379426
-0.51073 -0.234281 -0.379244
-0.222448 -0.381896 -0.503938
-0.225105 0.49195 -0.377118
-0.225216 -0.505578 -0.386239
0.491751 -0.237564 -0.382896
-0.496517 -0.231362 -0.381213
-0.219649 -0.372773 0.500126
-0.213098 -0.355507 -0.486078
-0.22736 0.513077 -0.375117
-0.232442 -0.509037 -0.372162
0.508371 -0.228742 -0.368061
-0.49435 -0.224213 -0.373129
-0.223591 0.512497 -0.353171
-0.228582 -0.48513 -0.348584
0.501473 -0.213858 -0.368423
-0.218806 -0.353624 -0.525857
-0.202527 0.494099 -0.346843
-0.238806 -0.342273 0.506216
-0.217941 -0.342404 -0.470943
-0.227304 0.491375 -0.335256
0.496133 -0.217145 -0.342919
0.490784 -0.219339 -0.316353
-0.509867 -0.242285 -0.331953
-0.22378 -0.326392 -0.497825
-0.205521 0.498286 -0.311387
0.522106 -0.238519 -0.314576
-0.498913 -0.238286 -0.316255
-0.211929 -0.313656 -0.507211
-0.23008 0.509241 -0.303987
0.507183 -0.241701 -0.296366
-0.224523 -0.280271 0.501393
-0.226575 0.504952 -0.302597
-0.210536 0.489849 -0.287948
-0.238318 -0.497597 -0.2776
-0.522727 -0.243061 -0.267716
-0.230382 0.488859 -0.253703
-0.497968 -0.220595 -0.268738
-0.231621 -0.22561 0.498868
-0.500468 -0.213307 -0.241637
-0.222842 -0.253025 0.499353
-0.232383 0.232148 0.489144
-0.521212 -0.211619 0.220898
-0.241884 -0.492963 0.254688
-0.490891 -0.210736 0.255892
-0.231921 0.505245 0.262476
-0.22794 -0.489177 0.253966
-0.480051 -0.222169 0.259744
-0.239221 0.270856 -0.513023
-0.216015 0.264596 -0.492303
-0.226744 0.490701 0.284135
-0.224009 0.49641 0.281764
-0.235983 -0.502573 0.292646
0.484544 -0.23776 0.282935
-0.523781 -0.233963 0.300341
-0.233746 0.307875 0.503511
0.485238 -0.231158 0.292144
-0.495908 -0.219299 0.319078
-0.221257 0.322013 0.507053
-0.244035 0.310428 -0.499938
-0.225652 -0.489263 0.328491
0.492835 -0.229012 0.327188
-0.480113 -0.225749 0.319103
0.496075 -0.237983 0.315603
-0.492962 -0.212946 0.336687
-0.226206 0.339496 0.495764
-0.50458 -0.226151 0.350177
-0.511675 -0.209743 0.34052
-0.248588 0.356696 0.505277
-0.217354 0.483667 0.365018
-0.211641 -0.487174 0.358131
-0.508864 -0.221055 0.358473
-0.224819 0.369348 -0.498444
-0.216357 0.48952 0.373714
0.507127 -0.239352 0.353261
-0.21803 0.367363 -0.477547
-0.226763 -0.507106 0.368075
0.484395 -0.237184 0.395038
-0.499149 -0.219657 0.37313
-0.209389 0.39204 0.501667
-0.236142 0.501119 0.380612
-0.219209 -0.509785 0.39147
0.493334 -0.247164 0.393522
-0.505711 -0.222839 0.38637
-0.221388 -0.504737 0.395891
0.50451 -0.240532 0.38849
-0.517236 -0.235024 0.395725
-0.221099 -0.484583 0.401633
-0.496671 -0.221107 0.425567
-0.22596 0.407342 0.504972
-0.210709 0.417865 -0.504243
-0.209562 0.5123 0.418085
-0.210287 -0.508889 0.405195
0.50445 -0.234092 0.425023
-0.51326 -0.230295 0.413239
-0.225622 0.433581 0.506388
-0.227583 0.416796 -0.483188
-0.217896 0.487877 0.43348
-0.22261 -0.49889 0.434751
0.499627 -0.229099 0.437155
-0.494165 -0.229037 0.446207
-0.228001 0.44698 0.497694
-0.233497 0.516379 0.416952
-0.224455 -0.514141 0.426394
0.503282 -0.22611 0.438268
-0.517746 -0.221631 0.457857
-0.222908 0.45309 0.506172
-0.220677 0.501548 0.438349
-0.207641 -0.504516 0.450363
0.507133 -0.233359 0.440395
-0.231694 0.474294 0.468605
-0.224056 0.451537 -0.502795
-0.240981 0.498544 0.467256
0.523468 -0.23364 0.462148
-0.496665 -0.228786 0.447284
-0.226235 0.453421 0.493332
-0.221359 0.477489 -0.504847
-0.23763 0.488217 0.471965
-0.220243 -0.506417 0.467658
0.501657 -0.215689 0.479381
-0.50079 -0.231059 0.473936
-0.223909 0.480998 0.483309
-0.21259 0.480619 -0.498881
-0.23704 0.495102 0.469201
-0.232945 -0.498502 0.485237
0.511573 -0.233639 0.484847
-0.498077 -0.223624 0.485147
-0.24321 0.490791 0.489868
-0.225279 0.494066 -0.51305
-0.227536 0.509626 0.484938
-0.224318 -0.494444 0.491474
0.492121 -0.217425 0.486443
-0.515259 -0.230078 0.494751
-0.246795 0.491555 0.495145
-0.227787 0.503564 -0.506788
-0.229155 0.494008 0.515443
-0.225426 -0.505429 0.507405
0.516992 -0.21777 0.513733
-0.50535 -0.232546 0.486076
-0.232088 -0.494852 0.504004
-0.220685 -0.492023 -0.476346
-0.213251 0.509716 -0.504511
-0.207174 -0.49438 -0.508366
0.497279 -0.223824 -0.505978
-0.503008 -0.220837 -0.497977
-0.213617 -0.499191 0.495645
-0.221145 -0.475872 -0.506095
-0.22177 0.493115 -0.490314
-0.204742 -0.515874 -0.466207
0.499179 -0.225 -0.478999
-0.496503 -0.226661 -0.50361
-0.215358 -0.476924 0.503031
-0.207834 -0.481878 -0.49418
-0.221998 0.479493 -0.480972
-0.223116 -0.509849 -0.488493
0.498397 -0.201947 -0.494273
-0.504538 -0.203926 -0.474004
-0.195345 -0.482165 0.49309
-0.21101 -0.462591 -0.490878
-0.215193 0.501573 -0.477747
-0.215801 -0.490713 -0.451822
0.502172 -0.225899 -0.47853
-0.498038 -0.223157 -0.468708
-0.194652 -0.456237 0.509796
-0.216548 -0.454927 -0.489027
-0.22428 0.488991 -0.446035
-0.235183 -0.510639 -0.46966
-0.217103 -0.451522 -0.509628
-0.192871 0.497442 -0.450018
-0.224776 -0.503277 -0.464509
0.512091 -0.22687 -0.445452
-0.503085 -0.21309 -0.455786
-0.23174 -0.446088 0.497139
-0.223811 -0.437172 -0.514333
-0.220341 0.500205 -0.424529
-0.210336 -0.495142 -0.445851
0.483409 -0.223896 -0.43288
-0.21776 -0.409869 0.506326
-0.210947 -0.424556 -0.497834
-0.203197 0.49606 -0.43125
-0.214304 -0.498369 -0.421403
0.501813 -0.229154 -0.418242
-0.501305 -0.223827 -0.434142
-0.207901 -0.409998 -0.476576
-0.226557 0.501755 -0.403383
-0.225298 -0.493392 -0.422696
0.499202 -0.221731 -0.418979
-0.486455 -0.205885 -0.422665
-0.21067 0.489109 -0.417777
0.497639 -0.21675 -0.41443
-0.4951 -0.221677 -0.396543
-0.21247 -0.414221 -0.50967
-0.233933 0.480041 -0.40944
-0.216856 -0.394812 -0.501291
-0.230702 0.49163 -0.389699
0.488743 -0.219461 -0.379356
-0.489596 -0.217475 -0.375767
-0.202595 -0.389471 -0.500505
-0.233392 -0.487833 -0.375275
0.512497 -0.211859 -0.381081
-0.495648 -0.213385 -0.357156
-0.225429 -0.368835 -0.512516
0.493859 -0.219685 -0.374444
-0.499508 -0.225979 -0.373399
-0.217576 -0.358629 0.478184
-0.228372 -0.363054 -0.496136
-0.230896 0.489939 -0.35685
-0.214946 -0.338131 -0.49477
-0.225744 -0.50403 -0.3548
-0.496906 -0.229067 -0.350053
-0.226387 -0.331677 -0.502235
-0.21642 -0.488862 -0.345182
-0.513157 -0.224064 -0.351684
-0.21933 -0.32358 -0.499837
0.502951 -0.203653 -0.346327
-0.228253 -0.336073 -0.508426
-0.209214 0.478243 -0.328405
-0.513188 -0.218785 -0.329782
-0.215545 -0.293616 0.49642
-0.237738 -0.486862 -0.300507
-0.493038 -0.21645 -0.304754
0.479879 -0.21003 -0.291399
-0.226889 -0.299325 -0.493993
-0.213902 -0.267587 -0.492886
-0.2246 0.520625 -0.239506
0.492937 -0.224208 -0.278114
-0.213935 0.499277 0.199804
-0.223755 0.23229 -0.49777
-0.217641 -0.49118 0.271401
0.509987 -0.217236 0.279315
-0.504151 -0.225509 0.278143
-0.210307 0.279476 0.503533
-0.22558 0.513023 0.281026
-0.210674 -0.484812 0.295854
-0.224004 0.313618 0.490222
-0.206486 -0.509158 0.306335
-0.488883 -0.207146 0.300272
-0.227497 0.298482 0.513924
0.500932 -0.217312 0.299004
-0.212935 0.48958 0.333932
-0.21684 0.324605 0.503206
-0.214345 0.348618 -0.525309
-0.525233 -0.225892 0.315679
-0.215684 -0.50005 0.322461
-0.208419 0.353875 0.495601
0.494156 -0.224055 0.342276
-0.49357 -0.220827 0.333358
-0.208273 -0.488164 0.356257
0.497992 -0.220896 0.375132
-0.214903 0.354522 0.491106
-0.223636 0.369627 -0.499763
-0.232418 0.509853 0.373932
0.48978 -0.21216 0.357519
-0.5044 -0.217585 0.367045
-0.220977 0.382661 -0.505323
-0.218108 0.509695 0.375671
-0.215031 -0.508179 0.38495
0.497854 -0.205709 0.357026
-0.490581 -0.208035 0.385277
-0.232402 0.385275 -0.498234
-0.200947 0.491919 0.401761
-0.210739 -0.489704 0.38988
0.520128 -0.218246 0.383065
-0.492242 -0.206783 0.387602
-0.232244 0.403508 0.500269
-0.207331 -0.487199 0.396357
0.496817 -0.205493 0.424376
-0.215572 0.421261 0.511431
-0.216824 -0.493246 0.389774
-0.505181 -0.217247 0.406183
-0.230366 0.502206 0.428216
-0.223226 -0.504163 0.428535
-0.229193 0.435313 0.523457
-0.226435 0.500243 0.441705
-0.216878 -0.49255 0.416908
0.502857 -0.231622 0.407775
-0.478341 -0.21762 0.432197
-0.214995 0.427515 0.490494
-0.219626 0.452966 -0.488374
-0.223951 0.498041 0.438663
-0.2296 -0.507602 0.455104
0.495516 -0.233382 0.430717
-0.490464 -0.219892 0.453997
-0.216617 0.440236 0.493531
-0.230816 0.451693 -0.507903
-0.224175 0.488131 0.446108
-0.196908 -0.498029 0.457749
0.52625 -0.215276 0.443663
-0.493037 -0.233306 0.443785
-0.216739 0.466301 0.491896
-0.222441 0.460236 -0.502567
-0.211813 0.485523 0.457744
-0.210384 -0.502176 0.436637
0.507525 -0.2143 0.470635
-0.508143 -0.234053 0.454851
-0.2076 0.470802 0.484087
-0.217191 0.475359 -0.498078
0.492885 -0.202921 0.482797
-0.494589 -0.213291 0.470993
-0.232896 0.483425 0.52147
-0.220894 0.473773 -0.473992
-0.202914 0.493902 0.491477
-0.22355 -0.505342 0.488244
0.496561 -0.218856 0.484693
-0.505688 -0.20107 0.477142
-0.210129 0.499389 0.493918
-0.231219 0.49504 -0.51039
-0.213152 0.504571 0.503184
-0.234415 -0.507078 0.487504
0.51368 -0.218127 0.478294
-0.49846 -0.209896 0.498511
-0.235203 0.500284 0.489275
-0.212554 0.500842 -0.496863
-0.212546 0.503865 0.506224
-0.226372 -0.503474 0.496108
0.486963 -0.220334 0.49981
-0.501545 -0.232614 0.487029
-0.19009 -0.487324 0.499407
-0.212722 -0.482916 -0.512402
-0.193136 0.492652 -0.492073
-0.202956 -0.498304 -0.506524
0.488318 -0.213145 -0.506042
-0.48645 -0.211776 -0.49849
-0.213301 -0.506937 0.509401
-0.203115 -0.500058 -0.485788
-0.21197 0.50976 -0.490502
-0.211624 -0.491385 -0.477864
0.493065 -0.203844 -0.489369
-0.498573 -0.201967 -0.483553
-0.203244 -0.46769 0.492975
-0.219641 -0.477699 -0.524832
-0.213358 0.498645 -0.495665
-0.215589 -0.497279 -0.478941
0.505756 -0.202317 -0.472
-0.502521 -0.209896 -0.477443
-0.20755 -0.467514 0.489642
-0.204687 -0.466883 -0.494737
-0.213527 0.49849 -0.452877
-0.20313 -0.498107 -0.45755
0.513885 -0.188497 -0.444409
-0.486845 -0.206261 -0.438053
-0.200253 -0.464046 0.4906
-0.227335 -0.444842 -0.474392
-0.208744 0.519282 -0.464646
-0.1925 -0.508767 -0.436404
0.526656 -0.208188 -0.461324
-0.507149 -0.201685 -0.443787
-0.203535 -0.431279 -0.505064
-0.208474 0.492269 -0.433521
0.484924 -0.226703 -0.44391
-0.487557 -0.209251 -0.438134
-0.196327 -0.430968 0.499918
-0.21475 -0.51074 -0.437167
0.494463 -0.198506 -0.421539
-0.512374 -0.21964 -0.43279
-0.198465 -0.427331 0.503989
-0.212893 -0.407538 -0.504947
-0.189607 0.506854 -0.405292
-0.211779 -0.499073 -0.425582
0.488544 -0.214582 -0.410579
-0.206381 -0.407508 0.495354
-0.21484 0.508389 -0.408959
-0.194651 -0.483548 -0.40136
-0.504144 -0.218372 -0.409222
-0.199601 -0.409446 -0.505503
-0.175733 0.502218 -0.400189
-0.211312 -0.507542 -0.406072
-0.506801 -0.223381 -0.399137
-0.214833 -0.403414 0.498122
-0.209917 0.504077 -0.403295
0.504934 -0.21764 -0.406134
-0.207762 -0.374686 0.496145
-0.209317 0.49305 -0.371271
-0.188819 -0.511298 -0.375265
-0.209929 -0.36431 -0.501013
-0.199461 -0.494938 -0.376932
0.501533 -0.195415 -0.338289
-0.206828 -0.357854 -0.507922
0.520221 -0.208538 -0.353801
-0.213484 -0.335587 0.49023
-0.219384 -0.3463 -0.505242
-0.214627 0.505245 -0.329074
-0.19027 -0.359838 0.499738
-0.194026 -0.346732 -0.506216
-0.186815 0.494158 -0.344488
-0.508275 -0.19377 -0.321932
-0.495642 -0.209752 -0.314004
-0.513605 -0.220934 -0.306807
-0.206262 -0.306489 -0.5015
-0.197716 -0.290187 0.488782
-0.18911 -0.301357 -0.496769
-0.201875 0.505267 -0.318941
-0.501791 -0.221247 -0.308773
-0.204078 -0.292181 0.514605
-0.201824 0.526026 -0.277344
-0.212267 -0.497842 -0.277469
0.505709 -0.19663 -0.289963
-0.202912 -0.256834 0.500192
-0.202647 -0.48927 -0.277496
-0.51684 -0.221069 -0.236014
0.510589 -0.188141 0.223054
0.493272 -0.227055 0.243661
-0.217351 0.514983 0.263735
-0.212068 0.266815 -0.50613
-0.502055 -0.223765 0.277644
-0.199521 0.498121 0.260443
0.503649 -0.194396 0.279916
-0.217409 -0.494669 0.282288
-0.501373 -0.188607 0.320591
-0.20634 0.305722 -0.49765
-0.222833 0.495544 0.292741
-0.19988 -0.495808 0.299304
0.498443 -0.20524 0.296326
-0.220956 -0.504335 0.313554
-0.209813 0.338227 -0.514406
-0.204505 0.488363 0.32633
-0.202722 -0.503006 0.340299
-0.198256 0.319468 0.509276
-0.191863 0.340464 -0.496261
0.479945 -0.219036 0.330679
-0.206213 0.335544 0.487873
-0.19528 0.342211 -0.516459
-0.202463 -0.496541 0.357048
0.505165 -0.198076 0.35344
-0.208723 0.498247 0.374335
0.485729 -0.213604 0.353885
-0.489688 -0.205 0.369981
-0.199509 0.363184 -0.504437
-0.205613 0.370412 0.50689
-0.21132 0.500305 0.379056
-0.186052 -0.504121 0.376408
0.513835 -0.197318 0.376861
-0.495449 -0.213797 0.378199
-0.206737 0.391837 0.486674
-0.213282 0.386345 -0.490341
-0.187496 0.508449 0.390948
-0.223591 -0.498487 0.396698
-0.51695 -0.217515 0.39237
-0.193676 0.500962 0.392181
0.502881 -0.186665 0.391139
-0.48253 -0.202468 0.400739
-0.207855 0.402913 0.503333
-0.208454 0.412348 -0.494023
-0.19836 0.495447 0.406076
-0.187034 -0.506418 0.402129
-0.502189 -0.209821 0.416753
-0.201337 0.408327 -0.483652
-0.204349 0.503044 0.423558
-0.489187 -0.226304 0.431657
-0.211067 0.445023 0.498638
-0.198462 0.425896 -0.476719
-0.21283 -0.499605 0.429581
0.508158 -0.200502 0.438442
-0.20876 0.449313 0.495453
-0.203143 0.491534 0.450782
-0.204728 -0.486919 0.421777
0.495609 -0.19475 0.446911
-0.48934 -0.203669 0.455049
-0.216686 0.470308 0.501671
-0.213155 0.511342 0.44688
-0.199198 -0.53341 0.444361
0.489117 -0.204729 0.439648
-0.213672 0.468085 0.488279
-0.204152 0.462544 -0.480224
-0.203389 0.511327 0.438836
0.506981 -0.200655 0.453707
-0.506401 -0.194296 0.454254
-0.219616 0.465244 0.5017
-0.203958 0.476411 -0.499592
-0.212157 0.484241 0.45883
-0.208092 -0.476226 0.478327
0.491148 -0.196277 0.469997
-0.488527 -0.195773 0.475108
-0.224517 0.483841 0.488471
-0.207269 0.477035 -0.474616
-0.204282 0.505813 0.486297
-0.202113 -0.516729 0.475199
0.500612 -0.202949 0.490652
-0.487592 -0.199608 0.47601
-0.203342 0.485866 -0.514358
-0.207758 0.49263 0.468862
-0.208071 -0.497994 0.497085
0.508468 -0.199652 0.500505
-0.47916 -0.205158 0.497138
-0.215072 0.51074 0.506136
-0.210122 0.501055 -0.504281
-0.211227 0.481203 0.494076
-0.216992 -0.477216 0.498809
0.49941 -0.212395 0.501122
-0.477851 -0.214023 0.504692
-0.176305 -0.502049 0.503373
-0.195559 -0.505173 -0.487556
-0.188323 0.502316 -0.512954
-0.205848 -0.488278 -0.476774
0.488209 -0.200191 -0.499146
-0.49953 -0.203474 -0.509505
-0.197689 -0.486174 0.49939
-0.204391 -0.488692 -0.508545
-0.196317 0.515547 -0.498363
-0.188903 -0.495734 -0.496197
0.501932 -0.187037 -0.488343
-0.503816 -0.192046 -0.495577
-0.184442 -0.457571 0.505551
-0.220379 -0.469203 -0.498561
-0.19255 0.510367 -0.468014
0.499571 -0.194792 -0.509364
-0.504769 -0.197437 -0.473609
-0.173845 -0.457226 0.497372
-0.2112 -0.465637 -0.499192
-0.202151 0.508267 -0.47224
-0.185264 -0.510257 -0.472387
0.495577 -0.179875 -0.470334
-0.496065 -0.195842 -0.479279
-0.203293 -0.452938 0.488057
-0.204995 -0.457887 -0.501296
-0.197596 0.50572 -0.461778
-0.191761 -0.498334 -0.486564
0.503107 -0.20385 -0.47865
-0.48246 -0.210829 -0.458048
-0.199071 -0.432781 0.496799
-0.203404 -0.442564 -0.495778
-0.184784 0.497006 -0.44743
-0.206838 -0.500598 -0.43234
-0.489076 -0.183644 -0.452471
-0.208299 -0.449095 0.511767
-0.18558 -0.444767 -0.4967
-0.19692 -0.494823 -0.437017
0.481814 -0.189026 -0.463073
-0.502686 -0.19961 -0.437981
-0.210871 -0.428069 -0.495848
-0.216069 0.497253 -0.438692
-0.182723 -0.499425 -0.443017
0.517195 -0.193065 -0.428669
-0.518218 -0.19907 -0.440596
-0.211239 -0.416313 0.523273
-0.176112 -0.422617 -0.500814
-0.199018 0.484903 -0.41152
-0.204371 -0.404662 0.502835
-0.194951 -0.407398 -0.496502
-0.193337 0.500513 -0.414589
-0.190245 -0.491955 -0.419658
-0.214109 -0.401407 0.514593
-0.200971 -0.410141 -0.491143
-0.18074 0.489986 -0.400093
-0.503795 -0.213388 -0.398096
-0.211596 -0.398918 -0.513168
-0.192418 0.494292 -0.391153
0.514137 -0.191648 -0.401306
-0.500121 -0.193891 -0.393317
0.508598 -0.181923 -0.370814
-0.4965 -0.207613 -0.381233
-0.170853 0.480506 -0.370853
-0.193847 -0.504969 -0.354096
0.499582 -0.190801 -0.365838
-0.50425 -0.2031 -0.365541
-0.198298 -0.374649 0.505103
-0.198453 -0.372454 -0.496606
-0.202034 0.511003 -0.362016
0.49241 -0.213946 -0.362594
-0.50627 -0.214369 -0.376828
-0.192374 -0.34877 0.488799
-0.187263 0.495771 -0.332696
0.494259 -0.199693 -0.342882
-0.217045 -0.338756 0.509418
-0.195793 -0.329988 0.505281
-0.183372 0.505849 -0.321509
-0.192284 -0.523999 -0.342149
-0.205123 -0.327752 -0.490039
-0.200236 -0.507708 -0.321829
0.486196 -0.197128 -0.32054
-0.50459 -0.207609 -0.325064
-0.200252 -0.311639 -0.495955
-0.207005 -0.509337 -0.319402
0.48385 -0.190703 -0.312693
-0.190428 -0.276169 -0.49912
-0.206081 0.504061 -0.282971
-0.202508 -0.276788 0.497958
-0.494872 -0.20036 -0.273192
-0.18104 0.25749 -0.492031
-0.504262 -0.199064 0.253039
-0.208048 0.490616 0.270815
-0.196616 0.297682 -0.492903
-0.194887 -0.494155 0.293455
-0.194128 0.314025 -0.491665
-0.193456 -0.502843 0.307488
-0.19519 0.490194 0.330082
-0.505884 -0.195415 0.33577
-0.205299 0.357537 0.495455
-0.207793 0.33689 -0.515973
-0.188533 0.49054 0.347601
-0.508395 -0.198562 0.31987
-0.19181 0.333755 0.515238
-0.193351 0.345888 -0.517746
-0.198082 -0.500379 0.347235
-0.182722 0.354406 0.493528
-0.20527 0.357655 -0.495486
-0.193916 0.490004 0.362431
-0.181781 -0.50361 0.362531
0.50516 -0.213745 0.373706
-0.188687 0.358035 0.484987
-0.2017 0.508909 0.37906
-0.198936 -0.487815 0.39073
0.514592 -0.201411 0.365623
-0.475746 -0.193339 0.381544
-0.209429 0.370276 0.501142
-0.186484 0.375452 -0.48994
-0.48832 -0.193538 0.361165
-0.192539 0.375019 -0.494827
-0.200566 0.502514 0.381556
-0.507023 -0.193399 0.384629
-0.195081 0.412404 -0.519828
-0.192445 -0.495607 0.403588
0.500524 -0.194043 0.425316
-0.487259 -0.18777 0.409102
-0.186833 0.417485 -0.512227
-0.196232 0.482172 0.421949
-0.179685 -0.505481 0.413469
0.517315 -0.19389 0.415233
-0.509612 -0.203927 0.419685
-0.198244 0.504068 0.422997
-0.196352 -0.501565 0.44081
-0.491233 -0.186922 0.420641
-0.201109 0.432215 0.490431
-0.197833 0.438656 -0.509186
-0.189217 0.49861 0.453675
-0.197603 -0.472525 0.458822
0.501514 -0.189524 0.431611
-0.505578 -0.200811 0.436864
-0.210666 0.443228 0.493483
-0.210278 0.442244 -0.493291
-0.188205 0.489968 0.449753
-0.204004 -0.496638 0.472676
0.504705 -0.187354 0.447495
-0.516162 -0.179546 0.462179
-0.189104 0.465628 0.495472
-0.19456 0.51038 0.450647
0.505375 -0.178313 0.441635
-0.486649 -0.18452 0.461451
-0.201392 0.458072 0.48712
-0.187384 0.514687 0.476838
-0.198717 -0.497513 0.461846
0.495913 -0.186341 0.485048
-0.504096 -0.195125 0.465673
-0.206259 0.476546 0.495533
-0.196969 0.49468 -0.522632
-0.187691 0.499204 0.480536
-0.205061 -0.494283 0.47233
0.505593 -0.194278 0.458092
-0.501385 -0.197954 0.490361
-0.196195 0.506548 0.49039
-0.193957 0.474577 -0.487649
-0.206488 0.487195 0.508404
-0.200752 -0.515151 0.481682
0.490455 -0.195597 0.476238
-0.513063 -0.206991 0.50093
-0.191387 0.486696 0.504522
-0.208147 0.496414 -0.493249
-0.194268 0.502828 0.491314
-0.21414 -0.522545 0.504359
0.504094 -0.194427 0.512926
-0.507821 -0.19853 0.480436
-0.17407 -0.50511 0.484814
-0.191269 -0.502209 -0.492986
-0.19018 0.474161 -0.489561
-0.200682 -0.49324 -0.487438
0.499889 -0.187371 -0.480204
-0.480983 -0.201338 -0.502286
-0.182669 -0.478057 0.494469
-0.194193 -0.483399 -0.501558
-0.190978 0.499295 -0.483718
-0.173445 -0.496733 -0.500692
0.507164 -0.192643 -0.482447
-0.509634 -0.19153 -0.503494
-0.188805 -0.475031 0.494847
-0.194889 -0.498237 -0.502181
-0.199143 0.501122 -0.470725
0.495077 -0.17283 -0.466631
-0.519053 -0.183526 -0.481587
-0.193029 -0.462998 0.510516
-0.190582 -0.50727 -0.468718
0.47696 -0.198723 -0.478096
-0.510244 -0.180659 -0.474759
-0.178874 -0.45811 0.497057
-0.185104 -0.468815 -0.527092
-0.190525 -0.508149 -0.465214
0.482325 -0.184615 -0.476912
-0.511303 -0.18247 -0.460864
-0.178372 -0.460283 0.484196
-0.171808 -0.443275 -0.484019
-0.201097 0.497089 -0.461558
-0.170596 -0.448733 0.500003
-0.18952 -0.426326 -0.505832
-0.18337 0.501178 -0.434997
-0.194329 -0.491493 -0.446396
0.497188 -0.197525 -0.456124
-0.502031 -0.172358 -0.449119
-0.196912 -0.431909 0.510776
-0.178182 -0.431259 -0.496511
-0.188745 0.510145 -0.419308
-0.182234 -0.509259 -0.413469
0.501233 -0.175781 -0.423298
-0.501279 -0.177077 -0.423432
-0.184522 -0.489676 -0.404166
0.515348 -0.194437 -0.420599
-0.497056 -0.177645 -0.416342
-0.195218 -0.410238 0.49081
-0.17556 0.512667 -0.408896
-0.178453 -0.507586 -0.411074
0.501107 -0.18445 -0.429243
-0.517439 -0.187083 -0.410374
-0.200567 -0.406664 0.491001
