ply
format ascii 1.0
comment sampling resolution: 0.01
comment noise level: 0.01
comment Created by Open3D
element vertex 1713
property double x
property double y
property double z
end_header
0.462632 0.494242 -0.432421
0.451644 -0.50119 -0.423789
0.506637 0.440749 -0.409912
-0.494003 0.442712 -0.428123
0.444814 -0.43241 0.507532
0.455266 -0.42807 -0.501022
0.450488 0.503443 -0.411959
0.450501 -0.49648 -0.410289
0.481893 0.44542 -0.407092
-0.504553 0.455508 -0.422212
0.460466 -0.424363 0.497308
0.429946 -0.388586 -0.499608
0.435625 0.48161 -0.404494
0.458145 -0.505308 -0.41907
0.497199 0.468319 -0.394171
-0.510913 0.447909 -0.406374
0.446839 -0.388458 0.500121
0.451829 -0.399122 -0.505069
0.431779 0.4889 -0.406082
0.456318 -0.491065 -0.395179
0.513078 0.445322 -0.38245
-0.489978 0.455082 -0.40118
0.437549 -0.388181 0.488594
0.450841 -0.378685 -0.499607
0.45216 0.489145 -0.401078
0.486572 0.453934 -0.389034
-0.516189 0.459944 -0.399857
0.451778 -0.385119 -0.517938
0.460243 0.514478 -0.38613
0.501345 0.463468 -0.3737
-0.503076 0.434906 -0.389653
0.461335 -0.361282 0.497164
0.441654 -0.36563 -0.510064
0.430609 0.502656 -0.374042
0.455092 -0.496119 -0.370092
0.508109 0.462997 -0.367287
-0.500045 0.457256 -0.376067
0.461141 -0.374877 0.480454
0.452162 -0.369939 -0.482998
0.446767 0.497728 -0.383699
0.437875 -0.491666 -0.360412
-0.503823 0.4685 -0.34753
0.439464 -0.356684 -0.501903
0.466347 0.488596 -0.347868
0.46873 -0.495935 -0.372535
0.503372 0.45493 -0.352998
-0.499603 0.439318 -0.342634
0.456001 -0.349377 0.489586
0.431211 -0.329536 -0.528125
0.462379 0.518793 -0.348413
0.451491 -0.499061 -0.353354
-0.488229 0.453804 -0.35285
0.446408 -0.333357 0.504376
0.454131 -0.330289 -0.493452
0.447616 0.49618 -0.332332
0.5092 0.449443 -0.334022
0.458337 -0.311167 0.518589
0.446269 -0.522105 -0.317087
0.509148 0.443828 -0.307312
-0.493169 0.454453 -0.32328
0.458167 -0.307368 0.514183
0.450928 -0.328103 -0.476322
0.466434 0.498517 -0.305721
0.450299 -0.504714 -0.303741
0.499036 0.459792 -0.312512
0.452727 -0.293454 0.497224
0.437993 -0.296144 -0.495808
0.450976 0.494945 -0.301654
0.428088 -0.496836 -0.290665
0.516232 0.468912 -0.294373
-0.496465 0.457059 -0.309794
0.436457 -0.29059 -0.508397
0.437838 0.504352 -0.261084
0.447979 -0.483633 -0.303301
0.479094 0.433175 -0.287382
0.453909 -0.28276 0.505724
0.445257 -0.2637 -0.504988
0.466798 -0.508341 -0.281674
0.509304 0.455817 -0.267287
0.4453 -0.274247 0.477744
0.431872 -0.261293 -0.513383
0.527511 0.441958 -0.274737
-0.501222 0.445819 -0.25798
0.455152 -0.26089 0.493096
0.441613 -0.255114 -0.499178
0.45429 -0.513167 -0.260373
0.500488 0.444459 -0.282375
0.448777 -0.251138 0.501117
0.456576 -0.229345 -0.504832
0.447903 -0.499097 -0.250591
0.490723 0.466807 -0.267654
0.454909 -0.229638 0.492924
0.455974 -0.221002 -0.474589
0.455235 0.517157 -0.235599
0.461587 -0.212844 0.487839
0.446557 -0.507039 -0.236321
0.503976 0.450764 -0.220557
-0.485295 0.45286 -0.211114
0.459762 -0.223463 0.500365
0.432805 -0.209962 -0.490749
0.456155 0.49795 -0.225441
0.459885 -0.481889 -0.218603
-0.490507 0.445847 -0.205812
0.453639 -0.210661 -0.519396
0.457173 -0.509343 -0.20044
0.526284 0.454792 -0.218656
-0.501931 0.444062 -0.203465
0.449612 -0.185709 0.497247
0.443635 -0.196486 -0.485526
0.45409 -0.488457 -0.197069
-0.500288 0.443657 -0.194076
0.454615 -0.192212 -0.500893
0.442205 0.502278 -0.175009
-0.512271 0.470896 -0.202061
0.44674 -0.173774 0.492676
0.443767 0.502843 -0.192513
0.511355 0.447737 -0.167678
-0.489882 0.451171 -0.174479
0.447293 -0.151919 0.500043
0.445115 0.502142 -0.154166
0.441149 -0.507496 -0.157802
0.497746 0.429487 -0.180843
0.448163 -0.152921 -0.499836
0.447099 0.496843 -0.162331
0.45152 -0.509245 -0.15276
0.495275 0.437805 -0.16788
-0.511339 0.447021 -0.135442
0.468596 -0.141729 -0.506205
0.485867 0.443444 -0.149455
-0.494526 0.440665 -0.137315
0.453762 -0.144012 0.50533
0.462148 0.491564 -0.129345
0.484713 0.454698 -0.140302
-0.493825 0.441422 -0.144581
0.462712 -0.135057 0.489924
0.449594 -0.116526 0.504558
0.441411 -0.116355 -0.490698
0.503303 0.450182 -0.139832
-0.503272 0.436345 -0.114788
0.458758 -0.107638 0.508632
-0.488622 0.451796 -0.125173
0.452956 -0.0952257 0.496139
0.454661 -0.0888036 -0.503067
0.438847 0.492412 -0.0731769
0.439636 -0.500098 -0.0825175
0.511227 0.438565 -0.0965044
-0.510382 0.44984 -0.0870254
0.427077 0.534552 -0.0930281
-0.495384 0.448108 -0.0891802
0.460581 -0.499123 -0.0889876
-0.495302 0.444499 -0.0665608
0.447971 -0.0650877 -0.511043
0.440309 0.491301 -0.0639255
-0.495642 0.449638 -0.0596662
0.445189 -0.072379 0.489906
0.44817 -0.501037 -0.0563582
0.506794 0.451249 -0.0607301
0.439834 0.504407 -0.0455376
0.484724 0.460849 -0.0414111
-0.51891 0.445856 -0.0535517
0.459461 -0.0415501 0.507285
0.444764 -0.516022 -0.0165104
0.436552 -0.0307334 0.47862
0.447805 -0.0143505 -0.499676
0.45552 0.499345 -0.0431292
0.486805 0.451217 -0.0197383
-0.481747 0.455243 -0.0306246
0.420911 0.516171 -0.0174062
0.447397 -0.51702 -0.0110982
0.446194 -0.0198578 0.516199
0.436533 0.0102976 -0.493519
0.461675 0.0145545 0.482881
0.45248 -0.00375066 -0.50238
0.44576 0.514839 -0.00461207
0.455674 -0.506105 -0.00247768
0.441822 0.0228334 0.491898
0.444436 -0.000617948 -0.504334
0.453658 0.0380579 0.498255
0.502719 0.461796 0.032611
-0.496429 0.447163 0.0255433
0.454379 0.0254919 -0.496055
0.450349 -0.503536 0.0269059
-0.490559 0.458269 0.0307335
0.445785 0.0504731 0.49517
-0.509357 0.450698 0.0482343
0.455591 0.0534014 0.498544
0.439881 0.0496372 -0.503881
0.434254 -0.481796 0.0461715
0.449153 0.051486 0.523386
0.450037 0.502043 0.0480132
0.508525 0.456647 0.0693715
0.453393 0.0828573 0.517889
0.44325 -0.490457 0.100654
0.51332 0.463508 0.0762171
0.460746 0.0831111 -0.517744
0.444906 0.512969 0.0848897
0.455686 -0.503218 0.0899667
0.494177 0.446313 0.0932755
-0.513865 0.454803 0.0962665
0.435906 0.105227 0.483993
0.42856 -0.500297 0.0944146
-0.501891 0.444154 0.0860701
0.444267 0.493835 0.113153
0.444377 -0.504917 0.104668
0.439827 0.11791 -0.510265
0.447594 -0.496503 0.138754
-0.494621 0.436606 0.119762
0.448663 0.147075 0.507674
0.458416 0.501363 0.135292
0.45199 -0.508933 0.130934
-0.509113 0.453927 0.113161
0.451865 0.166182 0.486565
0.445389 0.157419 -0.504255
0.453096 0.154998 0.509762
0.502737 0.443527 0.163709
0.437882 0.173065 0.517174
0.453589 -0.505371 0.165327
0.455063 0.172619 0.523102
0.439146 0.188053 -0.502088
0.444557 0.508038 0.167856
0.468824 -0.50113 0.166839
0.48951 0.456062 0.178938
-0.513057 0.452141 0.181624
0.449768 0.175881 0.513405
0.459635 0.191832 -0.501862
0.453748 -0.49776 0.163319
0.495222 0.449611 0.185741
-0.506273 0.455848 0.182399
0.462027 0.202082 0.493358
0.460102 0.513508 0.207064
0.459068 -0.4967 0.187732
0.500963 0.461872 0.191836
0.448343 0.219183 0.49321
0.460192 0.209943 -0.496257
0.469763 0.499405 0.224091
-0.492593 0.45903 0.193469
0.429569 0.221608 -0.502352
0.452125 0.479188 0.224049
0.447615 -0.498884 0.225367
0.499265 0.449054 0.191783
-0.511152 0.457869 0.219645
0.438386 0.221597 0.490962
0.438586 -0.483211 0.227366
0.487003 0.456832 0.235341
-0.518688 0.440493 0.220479
0.446203 0.253673 0.490154
0.455162 0.219556 -0.514403
0.449763 0.500751 0.240915
-0.505748 0.464213 0.239097
0.444137 0.251698 -0.519508
0.507695 0.436122 0.2479
-0.495632 0.461316 0.244547
0.430535 0.264043 0.497188
0.457109 -0.521535 0.259578
-0.487969 0.445269 0.251252
0.443248 0.268447 0.499046
0.435556 0.489398 0.264094
0.452159 -0.483821 0.254161
0.498153 0.457336 0.255444
0.444382 0.301742 0.500409
0.456867 0.277199 -0.49531
0.451798 -0.490854 0.262013
-0.497622 0.469749 0.285974
0.439562 0.287134 0.486779
0.444602 0.280345 -0.485501
0.451607 -0.495541 0.291575
0.507342 0.440106 0.285204
0.452582 0.298353 0.493206
0.45826 0.290256 -0.50387
0.438406 -0.497036 0.290949
0.514194 0.463132 0.293732
0.447112 0.303365 0.486954
0.437492 0.302818 -0.500477
0.449187 0.486787 0.325512
0.498657 0.458167 0.303665
-0.475689 0.444779 0.304836
0.449908 0.319489 0.515753
0.451323 0.313014 -0.49418
0.461791 0.487726 0.330087
0.458197 -0.498468 0.304044
0.490322 0.453332 0.331657
0.43944 0.333609 -0.505575
0.452815 0.514748 0.333547
0.441353 -0.50538 0.322371
0.516489 0.455776 0.329548
0.445158 0.322227 0.505128
0.45502 0.335269 -0.506313
0.448498 0.496955 0.349208
0.453612 -0.527004 0.333985
0.49266 0.450114 0.337217
0.42914 0.366001 0.513798
-0.50438 0.446247 0.348021
0.443716 0.474183 0.374625
0.443178 -0.501188 0.349588
-0.512293 0.456577 0.358176
0.447773 0.369337 0.493138
0.42274 0.352132 -0.5196
0.436743 0.482204 0.363892
0.451364 -0.492803 0.385616
0.511188 0.434172 0.369893
-0.493519 0.448557 0.365547
0.461914 0.374648 0.502554
0.44925 0.379793 -0.498813
0.444348 0.491869 0.37701
0.514313 0.440373 0.361898
-0.517583 0.455903 0.390408
0.460235 0.382878 0.497471
0.44669 -0.496438 0.383353
0.506121 0.450173 0.391661
-0.496233 0.441394 0.385788
0.4585 0.40345 0.505587
0.440447 0.399704 -0.501309
0.432229 -0.513545 0.39778
0.489194 0.453922 0.39829
-0.512965 0.476888 0.396746
0.442777 0.420225 0.481535
0.449386 0.404519 -0.504995
0.447885 -0.494386 0.414419
0.494095 0.457587 0.404618
-0.496329 0.443077 0.406783
0.454509 0.404172 0.505401
0.451107 0.499006 0.414716
0.505676 0.43709 0.412697
-0.502276 0.428877 0.417935
0.441875 0.436829 0.509786
0.454417 0.410863 -0.499212
0.466875 0.496722 0.418715
0.455792 -0.484721 0.439819
0.511393 0.454238 0.440722
-0.519142 0.472775 0.449337
0.450303 0.427602 0.501131
0.430577 0.518681 0.431272
0.463829 -0.499333 0.4158
0.488336 0.426316 0.448746
-0.491457 0.454406 0.447406
0.436747 0.441303 0.509876
0.461352 0.44294 -0.505813
0.450418 0.528101 0.4503
0.446436 -0.499135 0.444132
0.486404 0.459222 0.443029
-0.493007 0.453854 0.445283
0.454091 0.455732 0.492751
0.460839 0.452319 -0.506328
0.45404 0.487807 0.439166
0.446089 -0.488417 0.462478
0.475901 0.453418 0.472602
-0.507555 0.456568 0.451286
0.433949 0.489483 0.490861
0.45169 0.459964 -0.506291
0.458613 0.496344 0.468684
0.465196 -0.489499 0.459834
0.487299 0.429928 0.457845
-0.489398 0.432084 0.470321
0.447438 0.47272 0.503565
0.440408 0.46794 -0.498167
0.443582 0.498651 0.485895
0.45654 -0.523907 0.46334
0.499236 0.451546 0.485334
-0.484948 0.431752 0.468691
0.452801 0.484653 0.499218
0.452369 0.489817 -0.51012
0.460507 0.512906 0.491178
0.440563 -0.489754 0.47612
0.494314 0.455702 0.486155
-0.505544 0.436425 0.486478
0.458608 0.500583 0.521896
0.459682 0.494748 -0.490124
0.443653 0.494666 0.493288
0.452574 -0.506178 0.453603
0.493889 0.448386 0.512657
-0.502578 0.453363 0.504943
0.460141 -0.49407 0.518176
0.455156 -0.503084 -0.499454
0.473085 0.484007 -0.509448
0.475529 -0.525825 -0.489319
0.501512 0.468186 -0.50791
-0.510669 0.452279 -0.503034
0.461037 -0.492841 0.499285
0.456937 -0.487453 -0.52018
0.451871 0.49053 -0.499215
0.462659 -0.508354 -0.492118
0.50961 0.471648 -0.481478
-0.504273 0.44144 -0.47602
0.462096 -0.475073 0.497738
0.458956 -0.474122 -0.509843
0.467507 -0.499213 -0.488441
0.493531 0.466089 -0.470172
-0.493917 0.467362 -0.457775
0.470132 -0.47437 0.493423
0.469382 -0.478618 -0.523621
0.465602 0.491717 -0.460703
0.461198 -0.509704 -0.478944
0.495899 0.452836 -0.477895
-0.504067 0.456906 -0.474926
0.458922 -0.450146 0.485538
0.455089 -0.465659 -0.509145
0.449631 0.509526 -0.468035
0.465594 -0.494733 -0.458681
0.496004 0.466271 -0.443027
-0.503978 0.450254 -0.463909
0.465681 -0.447375 0.50632
0.47051 -0.455426 -0.503772
0.467697 0.501537 -0.450681
0.44567 -0.498177 -0.442853
0.493389 0.447356 -0.443115
-0.501884 0.457885 -0.459434
0.462323 -0.442157 0.499715
0.473678 -0.444375 -0.509933
0.461982 0.494635 -0.454501
0.463385 -0.521496 -0.43413
0.502321 0.443345 -0.426747
-0.495374 0.467186 -0.42689
0.457219 -0.431734 -0.513145
0.455232 0.498594 -0.401944
0.470572 -0.492648 -0.42145
0.499484 0.473613 -0.411073
-0.494042 0.463624 -0.46135
0.463311 -0.415172 0.506569
0.4598 -0.421983 -0.514919
0.450684 0.495654 -0.411913
0.470894 -0.502919 -0.422602
0.505467 0.455018 -0.420757
0.470756 -0.400861 0.513764
0.461743 -0.416364 -0.485464
0.470329 0.510503 -0.420051
0.464598 -0.509479 -0.398177
0.48941 0.462583 -0.408218
-0.517481 0.453488 -0.418763
0.472517 -0.39596 0.477767
0.446401 -0.392688 -0.507401
0.457055 0.488203 -0.403868
0.457811 -0.509584 -0.411313
0.526485 0.470421 -0.396507
-0.486647 0.472503 -0.399245
0.467329 -0.406928 0.48359
0.469268 -0.382487 -0.485745
0.439467 0.495875 -0.393989
0.458329 -0.487616 -0.39124
0.500135 0.458572 -0.363661
-0.496441 0.455845 -0.393504
0.448649 -0.38065 0.497611
0.45311 -0.3783 -0.497914
0.452357 0.498052 -0.376834
0.456813 -0.51345 -0.372851
-0.500484 0.438703 -0.374294
0.469126 -0.368723 0.514658
0.458731 -0.353665 -0.508042
0.439076 0.49653 -0.385771
0.455333 -0.50122 -0.365582
0.50953 0.448775 -0.366045
-0.516745 0.472465 -0.37451
0.464591 -0.36006 0.504406
0.461477 -0.367705 -0.519231
0.441209 0.515175 -0.366637
0.458483 -0.49144 -0.337979
0.510481 0.446535 -0.362838
0.462501 -0.347202 0.505913
0.453372 -0.340618 -0.506168
0.461334 0.508434 -0.364766
0.45771 -0.336009 0.511472
0.453411 -0.342732 -0.49644
0.450649 0.506695 -0.347106
0.456135 -0.514321 -0.340659
0.494919 0.444791 -0.327212
-0.499719 0.482691 -0.359884
0.455736 -0.312787 0.50229
0.476004 -0.327396 -0.49919
0.463382 0.518576 -0.329218
0.450625 -0.505227 -0.317847
-0.492786 0.471562 -0.320161
0.464404 -0.317515 0.506615
0.448072 -0.319918 -0.484492
0.447636 0.494197 -0.293094
0.466501 -0.493719 -0.321312
0.505384 0.459147 -0.333045
0.446086 -0.307382 -0.480931
0.457519 0.511504 -0.315559
0.489202 0.462312 -0.305975
-0.505172 0.438427 -0.31662
0.452302 -0.308012 0.503923
0.451115 -0.312607 -0.490605
0.463669 0.489344 -0.281349
0.452463 -0.491429 -0.314272
0.507835 0.46766 -0.314358
-0.508064 0.461087 -0.308028
0.449984 -0.283116 -0.499331
0.453074 0.487342 -0.295635
0.480058 -0.489112 -0.289936
0.496245 0.468302 -0.278593
0.445281 0.485621 -0.257722
0.452701 -0.495927 -0.258594
0.515084 0.469256 -0.284581
0.456489 -0.268859 -0.495271
0.450479 0.489324 -0.269609
0.458551 -0.491053 -0.284061
0.49597 0.459076 -0.284847
-0.513579 0.458478 -0.263263
0.464327 -0.252575 0.510314
0.454961 -0.26231 -0.487125
0.461009 0.492472 -0.25611
0.499057 0.470774 -0.25951
0.453757 -0.252419 0.513033
0.463306 -0.491878 -0.241251
0.494336 0.471438 -0.262924
-0.475146 0.464867 -0.262412
0.451272 -0.240946 0.493967
0.456428 0.508931 -0.26964
0.463695 -0.511141 -0.232728
0.438718 -0.235254 -0.515058
0.52016 0.458961 -0.226083
-0.493177 0.461289 -0.225086
0.469536 -0.231433 0.504971
0.453073 -0.203771 -0.5077
0.440828 -0.501309 -0.211902
0.509802 0.461237 -0.216355
0.464348 -0.223371 -0.493227
0.44193 0.490904 -0.206698
0.455166 -0.510236 -0.197356
0.495147 0.461473 -0.197889
0.473734 -0.183185 -0.505215
0.49374 0.463606 -0.189452
-0.499289 0.458026 -0.209095
0.459673 -0.184332 -0.49388
0.438427 0.49773 -0.1982
0.452411 -0.50747 -0.185256
0.500906 0.475261 -0.186267
-0.497949 0.450429 -0.209753
0.445142 -0.182723 -0.503356
0.454937 -0.500981 -0.173133
0.493183 0.462723 -0.173237
-0.495272 0.464903 -0.20426
0.473419 -0.177099 -0.505405
0.463103 -0.503492 -0.178965
0.499807 0.459146 -0.173167
0.471392 -0.15691 0.505629
0.453438 0.492688 -0.168845
0.45694 -0.496451 -0.159016
0.504421 0.486306 -0.1723
-0.494922 0.456865 -0.151831
0.463548 -0.147845 0.49712
0.466438 -0.14778 -0.499555
0.459116 0.499782 -0.148548
0.453 -0.521822 -0.141372
0.505217 0.447089 -0.15945
-0.510591 0.451049 -0.137929
0.461442 -0.138715 0.493894
0.5042 0.450747 -0.148642
-0.482869 0.469868 -0.148193
0.455296 -0.11218 0.497336
0.462836 -0.121372 -0.492019
0.47435 0.522773 -0.127689
0.460406 -0.496324 -0.12375
0.468209 -0.137768 -0.513704
0.464728 0.507818 -0.124084
0.454414 -0.48573 -0.128202
0.49536 0.445883 -0.114554
-0.503424 0.464166 -0.117768
0.466743 -0.119332 0.493096
0.476832 -0.12399 -0.501739
0.459609 0.505025 -0.0945088
0.463716 -0.494336 -0.101255
-0.510446 0.477707 -0.111056
0.457966 -0.0895269 0.494647
0.451798 -0.0859793 -0.497997
0.460206 0.503694 -0.113736
0.465681 -0.505664 -0.126678
0.512997 0.452059 -0.0931725
-0.503462 0.46809 -0.106006
0.465638 0.475545 -0.0999293
0.489329 0.440628 -0.0765207
-0.528616 0.466015 -0.0850135
0.472448 -0.0641117 -0.489898
-0.494269 0.472838 -0.0911503
0.458038 -0.0637721 0.493022
0.462338 0.498676 -0.0718035
0.45513 -0.503262 -0.0781124
0.478366 -0.0499816 -0.507655
0.459128 -0.471586 -0.060581
0.488162 0.464717 -0.0754196
0.461219 -0.0497012 0.511399
0.463469 -0.049616 -0.48865
0.462065 -0.49924 -0.0353949
0.489851 0.460623 -0.0399941
-0.500022 0.459085 -0.0552506
0.438814 -0.0529637 -0.484234
-0.508991 0.464829 -0.0233351
0.453165 -0.0313316 -0.484665
0.472799 -0.49348 -0.0226257
0.521427 0.441994 -0.0327167
-0.495632 0.476306 -0.0291113
0.452811 -0.48817 -0.00828032
-0.494968 0.46627 -0.012467
0.446333 0.504488 -0.0118966
-0.497778 0.451767 -0.000395141
0.474423 0.00737963 0.483584
0.448296 0.488403 0.0122118
0.466068 -0.49427 0.0212543
-0.492938 0.448552 0.00362454
0.447363 0.514991 0.0237362
0.507666 0.466266 0.023555
-0.500048 0.444894 0.0297596
0.446351 0.0332588 0.496624
0.458748 -0.498612 0.0332356
-0.524142 0.460795 0.0138719
0.470255 0.0420564 0.501947
0.4572 0.504705 0.0376558
0.460681 -0.485707 0.0294465
0.49243 0.452541 0.045843
-0.510519 0.456981 0.0215763
0.462739 0.0593704 0.508157
0.471273 0.489272 0.0517246
0.465398 -0.502459 0.0656022
0.495262 0.45629 0.0480261
-0.514848 0.477434 0.0522841
0.458092 0.0757963 0.500153
0.451984 -0.498414 0.0618355
0.493735 0.48138 0.0554726
0.46487 0.0788584 0.498167
0.448554 -0.491649 0.0755921
0.45389 0.0932243 0.499383
0.465534 0.48039 0.0837678
-0.514875 0.450411 0.07435
0.452809 0.0993956 -0.522171
0.461469 0.494912 0.092547
0.456374 -0.502317 0.0985939
0.498117 0.47215 0.107181
-0.50558 0.453781 0.103992
0.463951 0.10406 0.501924
0.471386 0.115906 -0.507891
0.442102 0.487261 0.093299
0.509977 0.45964 0.101883
0.457806 0.120371 -0.49411
0.462876 0.500737 0.124054
0.501815 0.451945 0.109385
-0.530277 0.448665 0.0993078
0.458726 0.131982 0.479169
0.467599 0.137554 -0.498068
0.490773 -0.502153 0.121896
0.457683 0.140718 0.498373
0.45249 0.133842 -0.518961
0.454272 0.495222 0.159095
0.436227 -0.498182 0.120769
0.510915 0.46426 0.145979
0.462632 0.119163 0.508111
0.439498 0.158978 -0.495251
0.461057 0.494197 0.147033
0.461162 -0.497107 0.156255
0.498608 0.479559 0.142051
-0.501467 0.467588 0.147313
0.471242 0.137573 0.501833
0.450981 0.152755 -0.482302
0.458664 0.50129 0.152609
0.460591 -0.519614 0.154709
0.515393 0.471526 0.174441
-0.488028 0.463956 0.160814
0.461585 0.174533 0.511508
0.460446 0.494807 0.164678
0.442555 -0.498515 0.173213
0.499878 0.480448 0.163316
-0.504291 0.454057 0.17124
0.441163 0.170517 -0.520096
0.494772 0.462001 0.167752
-0.486664 0.445889 0.179531
0.453281 0.18833 0.519739
0.457874 0.178195 -0.497398
0.471195 0.48286 0.188372
0.475376 -0.505406 0.189702
0.494195 0.484175 0.183837
-0.502859 0.460782 0.19029
0.471493 0.204366 0.50531
0.468885 0.204828 -0.489154
0.472241 0.489936 0.180134
0.454265 -0.50474 0.198778
0.503181 0.475076 0.205963
-0.488583 0.44692 0.195967
0.451758 0.201447 0.500807
0.469003 0.513576 0.212161
0.477087 -0.483904 0.204087
-0.487135 0.466218 0.225166
0.474776 0.234595 0.487969
0.473226 0.494783 0.214424
0.454469 -0.494153 0.209419
0.512891 0.453566 0.216738
-0.494485 0.443277 0.237357
0.465125 0.232603 0.501989
0.465505 0.221119 -0.499955
0.471286 0.496305 0.246916
0.476714 -0.494788 0.22807
-0.513671 0.45926 0.229025
0.449587 0.235923 0.491439
0.462752 0.2403 -0.487582
0.457706 0.516594 0.241832
0.468556 -0.505201 0.23511
-0.512136 0.460389 0.227886
0.463738 0.25778 -0.506008
0.473373 -0.515096 0.238789
0.5113 0.463366 0.248484
0.459415 0.247864 0.501759
0.481922 0.25548 -0.512513
0.461702 0.495572 0.287779
0.466567 -0.501122 0.251306
0.508166 0.463002 0.255613
-0.497286 0.455186 0.265259
0.463063 0.256652 0.496758
0.462555 0.26237 -0.509477
0.466966 0.504022 0.261731
0.475414 -0.484857 0.270644
0.49797 0.470385 0.266919
-0.500623 0.464288 0.263554
0.458601 0.244916 0.500175
0.457336 0.28161 -0.508446
0.464892 0.500905 0.277932
0.457859 -0.492684 0.286744
0.474372 0.299689 0.522932
0.461919 0.280738 -0.504931
0.453427 0.485937 0.297447
0.47783 -0.504833 0.28939
0.495918 0.462679 0.283614
-0.49609 0.443356 0.294491
0.456761 0.483783 0.300078
0.467479 -0.499307 0.307691
0.496976 0.447847 0.306002
-0.478477 0.455082 0.313041
0.466026 0.506204 0.312107
0.459613 -0.508415 0.313502
-0.489869 0.471886 0.311199
0.468844 0.338252 0.498276
0.442292 0.324166 -0.508398
0.480869 0.485736 0.312385
0.464975 -0.496554 0.326879
0.499966 0.453729 0.303725
-0.485452 0.46315 0.323389
0.464593 0.335756 0.500354
0.450228 0.328327 -0.503009
0.464629 0.478822 0.349428
0.457585 -0.488445 0.324088
0.495092 0.47224 0.342771
-0.501402 0.453581 0.318691
0.467229 0.337667 0.494699
0.448982 0.323683 -0.496847
0.506242 0.444813 0.34134
-0.50905 0.486433 0.345422
0.453735 0.355824 0.499707
0.452527 0.353537 -0.502809
0.471941 0.502849 0.350832
0.460339 -0.497597 0.336858
-0.511376 0.465171 0.34357
0.470556 0.377492 0.503295
0.465133 0.352322 -0.496307
0.444705 0.509986 0.347626
0.44589 -0.499065 0.36292
0.501357 0.458833 0.370751
-0.487384 0.456085 0.361785
0.44975 0.372435 0.507185
0.443877 0.376072 -0.498223
0.451473 0.493115 0.357213
0.467896 -0.487803 0.370335
0.520423 0.465759 0.393918
-0.525607 0.47677 0.364768
0.460261 0.366159 -0.502834
0.467407 0.50477 0.366807
0.457209 -0.503916 0.373358
0.509194 0.461842 0.364763
-0.506791 0.458811 0.384064
0.442701 0.39144 0.496124
0.449885 0.382096 -0.482926
0.466828 0.501892 0.390878
0.458584 -0.505678 0.385966
0.499 0.470078 0.38833
-0.492574 0.462251 0.399618
0.463813 0.393665 -0.506918
0.462259 0.486817 0.399415
0.475645 -0.496254 0.393599
0.517816 0.46548 0.411871
-0.509044 0.450916 0.399535
0.460399 0.412039 0.507762
0.462401 0.412318 -0.491145
0.469283 0.497659 0.417626
0.460741 -0.500589 0.42078
0.511405 0.451376 0.395483
0.461116 0.404555 0.488802
0.472602 0.424122 -0.505956
0.443654 0.493543 0.43157
0.460893 -0.495884 0.407225
0.515725 0.463994 0.415672
-0.497995 0.463745 0.444847
0.443416 0.43791 0.505674
0.469499 0.445734 -0.486044
0.461377 -0.494531 0.437264
0.504069 0.462994 0.421888
-0.497473 0.456471 0.436563
0.465139 0.442621 0.513505
0.4765 0.429608 -0.508805
0.475372 0.508556 0.436976
0.449317 -0.478592 0.440522
0.495935 0.45633 0.436176
-0.520785 0.455663 0.458661
0.453856 0.468784 0.497903
0.472947 0.459939 -0.513399
0.470525 0.485139 0.437551
0.462463 -0.495268 0.462631
0.484144 0.468912 0.452714
-0.505269 0.465538 0.440709
0.457147 0.472636 0.505655
0.45691 0.472481 -0.487403
0.443435 0.492417 0.469748
0.459961 -0.493316 0.457342
0.49994 0.451128 0.441792
-0.488271 0.451177 0.45144
0.447155 0.477832 0.487444
0.477769 0.48995 -0.499033
0.441623 0.504962 0.476711
0.447306 -0.496887 0.46941
0.505067 0.445716 0.467224
-0.51069 0.465567 0.467352
0.460105 0.472972 0.514344
0.45421 0.470705 -0.506344
0.469361 0.512152 0.495739
0.446624 -0.503662 0.473821
0.483677 0.462994 0.464002
-0.500731 0.456395 0.462615
0.458338 0.48315 0.508789
0.459825 0.477383 -0.507219
0.458561 0.516525 0.484241
0.453442 -0.500993 0.491099
0.511708 0.46886 0.499086
-0.511812 0.458982 0.483975
0.477942 0.491106 0.490662
0.452991 0.496969 -0.491579
0.454297 0.506319 0.517569
0.469193 -0.491388 0.498543
0.501505 0.463876 0.50046
-0.502549 0.461845 0.505233
0.460572 -0.503897 0.4893
0.488703 -0.499706 -0.508814
0.480189 0.47377 -0.52372
0.488728 -0.502721 -0.501984
0.500187 0.497277 -0.509346
-0.495595 0.478712 -0.521747
0.464555 -0.493525 0.508744
0.479576 -0.485337 -0.513999
0.468792 0.503032 -0.512776
0.476356 -0.480104 -0.488358
0.495726 0.453626 -0.504214
-0.495205 0.465584 -0.48214
0.471939 -0.47628 0.497066
0.476048 -0.466863 -0.49304
0.464486 0.512443 -0.465021
0.462705 -0.493664 -0.480524
0.502874 0.474758 -0.464476
-0.494618 0.476368 -0.495095
0.482198 -0.462648 0.501585
0.468423 -0.453787 -0.504493
0.485818 0.496039 -0.475993
0.461504 -0.522666 -0.469633
0.505665 0.491348 -0.462263
-0.494016 0.458723 -0.476897
0.459529 -0.453768 0.490314
0.474941 0.505168 -0.453885
0.481375 -0.495952 -0.451887
0.500326 0.473967 -0.458247
-0.491167 0.466015 -0.461405
0.449909 -0.43418 0.478549
0.471723 -0.459015 -0.485716
0.451596 0.48853 -0.452574
0.476575 -0.489067 -0.451723
0.507109 0.453932 -0.462825
-0.5113 0.468793 -0.451117
0.465932 -0.443903 0.48984
0.470483 -0.444546 -0.502279
0.462503 0.499599 -0.430366
0.464218 -0.493774 -0.432328
0.498784 0.453676 -0.455065
-0.494731 0.459333 -0.45163
0.469613 -0.443206 0.505538
0.459618 -0.408459 -0.504718
0.480289 0.506024 -0.421044
0.48313 -0.517926 -0.436573
0.485962 0.451503 -0.433017
-0.511872 0.467985 -0.427267
0.458331 -0.417941 0.499224
0.46234 -0.406929 -0.497044
0.475105 0.497665 -0.422852
0.478381 -0.490847 -0.423611
0.501482 0.474039 -0.42336
-0.503737 0.471344 -0.41925
0.463498 -0.415667 0.498485
0.465518 -0.402663 -0.520747
0.461317 0.497592 -0.409516
0.462061 -0.488501 -0.415298
0.506753 0.468062 -0.411377
-0.513684 0.476383 -0.405613
0.476416 -0.408613 0.513597
0.466932 -0.395971 -0.494684
0.464697 0.50107 -0.393713
0.459877 -0.495723 -0.381685
0.508408 0.462616 -0.402285
-0.504477 0.47654 -0.39789
0.445275 -0.393253 0.499145
0.474079 -0.393003 -0.495553
0.451341 0.513314 -0.411902
0.470213 -0.495895 -0.389144
0.499915 0.488262 -0.392351
-0.510421 0.475929 -0.390424
0.468675 -0.376468 0.493671
0.475951 -0.396488 -0.492143
0.468157 0.500527 -0.373398
0.464392 -0.508394 -0.384122
0.511239 0.477363 -0.379477
-0.509016 0.474851 -0.370257
0.459458 -0.354803 0.504712
0.473624 -0.383961 -0.498994
0.469673 0.501972 -0.352996
0.467721 -0.502354 -0.361566
0.475221 0.463189 -0.3665
-0.484635 0.469029 -0.356651
0.468089 -0.35113 0.501407
0.47861 -0.358423 -0.504131
0.482518 0.504288 -0.350479
0.501168 0.48058 -0.34775
0.461461 -0.356787 0.5122
0.467324 -0.332377 -0.499426
0.465282 0.491731 -0.35059
0.466357 -0.497572 -0.339766
0.513482 0.478657 -0.343399
-0.512927 0.484692 -0.361041
0.480058 -0.345583 0.488573
0.476577 -0.345486 -0.497133
0.486028 0.515165 -0.33454
0.468661 -0.486825 -0.362472
-0.489027 0.471096 -0.324406
0.485563 -0.320104 0.499406
0.458052 -0.315509 -0.510539
0.467662 0.498465 -0.322394
0.506064 0.480315 -0.344013
-0.512277 0.458676 -0.322983
0.460223 -0.313953 0.490145
0.479877 -0.33015 -0.490913
0.490417 0.503189 -0.320011
0.453138 -0.488573 -0.303637
0.527872 0.475584 -0.300837
0.469494 0.498656 -0.302333
0.511715 0.480408 -0.29352
-0.493672 0.453223 -0.306676
0.46523 -0.287265 0.502281
0.457007 0.510213 -0.289129
0.515913 0.466052 -0.290941
-0.506781 0.472111 -0.286183
0.465527 -0.303631 0.494939
0.469448 -0.286669 -0.505106
0.470584 0.512649 -0.27507
0.461444 -0.503064 -0.288876
0.495374 0.475049 -0.287819
-0.501301 0.457415 -0.291703
0.471363 -0.271461 0.495713
0.447925 -0.269401 -0.518621
0.468671 0.500563 -0.272358
0.467304 -0.509814 -0.28012
0.517917 0.463273 -0.269039
-0.500213 0.467802 -0.277113
0.461124 -0.278811 0.497815
0.467275 -0.258681 -0.500643
0.459456 0.510366 -0.2733
0.463208 -0.50412 -0.282734
0.49463 0.462459 -0.270335
-0.510886 0.482852 -0.261274
0.459196 -0.259918 0.508278
0.470774 -0.256755 -0.510739
0.454701 -0.499179 -0.253231
0.491796 0.470572 -0.267158
-0.507619 0.469255 -0.249546
0.474375 -0.24147 0.508837
0.478093 -0.264804 -0.476086
0.456919 0.495864 -0.239186
0.478881 0.477495 -0.246218
-0.49385 0.460857 -0.2464
0.477107 -0.21512 0.505646
0.483238 -0.242294 -0.507243
0.480051 0.502289 -0.241315
0.497481 0.480696 -0.244351
-0.496649 0.496783 -0.22539
0.480381 -0.229235 0.496036
0.464671 -0.230071 -0.491111
0.461127 0.481324 -0.216265
0.469036 -0.507896 -0.22562
0.493383 0.468593 -0.216983
-0.489161 0.46413 -0.228105
0.46059 -0.225874 0.492812
0.464088 0.492101 -0.214047
0.453286 -0.483708 -0.212933
0.490508 0.474272 -0.218625
-0.500059 0.476282 -0.218811
0.47712 -0.221692 0.51123
0.471127 -0.197334 -0.501931
0.464392 0.508632 -0.215393
0.479444 -0.514305 -0.213644
-0.480981 0.459815 -0.206136
0.470249 -0.194334 0.491299
0.477971 -0.19923 -0.520813
0.489507 0.497769 -0.209507
0.468318 -0.509614 -0.198978
0.504591 0.47148 -0.215988
-0.505434 0.483241 -0.200874
0.46398 -0.209572 0.481829
0.454116 -0.187938 -0.491507
0.457761 -0.490149 -0.181042
0.495348 0.486364 -0.190277
-0.501069 0.458016 -0.193049
0.461804 -0.188555 0.499952
0.460322 -0.170641 -0.501536
0.474381 0.480462 -0.158266
0.472804 -0.50222 -0.188999
0.480707 0.469375 -0.183103
-0.48657 0.477313 -0.183074
0.491745 -0.172022 -0.507543
0.4668 -0.494151 -0.170632
-0.495899 0.467224 -0.155703
0.492295 -0.158165 0.499572
0.460279 -0.166048 -0.501953
0.453616 -0.495629 -0.17113
0.501404 0.456396 -0.167476
-0.485856 0.498653 -0.147645
0.452925 -0.123247 0.501449
0.467881 -0.143409 -0.48857
0.46016 0.496446 -0.134501
-0.495681 0.460202 -0.16054
0.456206 -0.132557 0.513374
0.458173 -0.126819 -0.506259
0.474922 0.497141 -0.120041
0.506133 0.471164 -0.114126
-0.500652 0.47261 -0.133168
0.46834 0.49541 -0.121425
0.500444 0.468752 -0.122365
-0.490579 0.465274 -0.127178
0.476536 -0.12624 0.518781
0.48132 -0.127889 -0.501757
0.479974 0.49177 -0.107928
0.457345 -0.510521 -0.132912
-0.509635 0.478022 -0.119436
0.470664 -0.102777 0.500696
0.466809 0.4961 -0.105893
0.48512 0.475319 -0.103361
-0.493143 0.469082 -0.102149
0.465875 0.506902 -0.103768
-0.488618 0.478554 -0.0903613
0.457441 -0.108749 0.506569
0.467902 -0.0955315 -0.51658
0.467047 0.504368 -0.0883281
0.501886 0.47325 -0.0720315
-0.499582 0.444643 -0.0816537
0.470186 -0.0751594 0.498889
0.46769 -0.0806483 -0.47833
0.467463 -0.493047 -0.0734993
0.509524 0.4713 -0.0713661
-0.491056 0.452991 -0.0979436
0.478317 -0.0641455 -0.48783
0.479696 0.49945 -0.0808516
0.469244 -0.505973 -0.0788881
0.50482 0.469016 -0.055303
-0.490542 0.470938 -0.0512841
0.464444 -0.0537039 0.487455
0.470381 -0.050684 -0.496014
0.470796 0.495908 -0.0553709
0.467027 -0.510888 -0.0642238
-0.494133 0.457695 -0.054609
0.460005 -0.046088 0.494604
0.467029 0.510851 -0.0533855
0.508407 0.47446 -0.0302847
0.465024 -0.0354848 0.498789
0.48612 -0.0324337 -0.500922
0.470603 -0.50304 -0.0378034
0.495616 0.467212 -0.0250508
-0.480858 0.466977 -0.0323113
0.494282 -0.0175728 -0.50406
0.504232 0.515348 -0.0177755
0.456485 -0.48067 -0.0565477
0.501959 0.476379 -0.029681
-0.500514 0.459327 -0.0384683
0.463532 0.00130504 0.497876
-0.505304 0.452732 -0.0195275
0.470243 -0.00244685 0.490458
0.463764 -0.00174723 -0.514885
0.466106 0.507091 -0.0238131
0.474426 -0.4971 -0.025523
0.486799 0.460791 -0.0101724
0.463354 0.00829746 0.501351
0.478483 -0.00377561 -0.482617
0.472131 0.501889 -0.0111195
0.505024 0.472609 0.0138182
0.491674 0.0197172 0.51099
0.480573 0.0167157 -0.504232
0.471534 0.491477 0.00390463
0.492831 0.469131 0.0135318
-0.490527 0.46752 0.0328324
0.481341 0.0330699 -0.515427
0.477402 -0.484539 0.0277705
-0.49316 0.46198 0.0409806
0.466943 0.0439225 0.505266
0.470326 0.0271493 -0.499882
0.464384 0.521501 0.0333225
0.478428 0.45672 0.0282883
-0.507993 0.471475 0.031312
0.467608 0.0511038 0.489981
0.467036 0.0438012 -0.483661
0.482536 0.487523 0.0410976
0.477432 -0.49877 0.024632
-0.484326 0.484979 0.0532503
0.459528 0.052728 0.505042
0.461906 0.0569335 -0.496309
0.458235 0.504368 0.0627091
0.470431 -0.487836 0.0466967
-0.497367 0.491871 0.0583292
-0.504867 0.481302 0.0581936
0.461726 0.0780906 0.497576
0.486508 0.0598573 -0.50427
0.472332 -0.509443 0.0805063
-0.510823 0.470499 0.0722808
0.464497 0.0899322 -0.502226
0.476477 0.509612 0.0617119
0.46764 0.0726907 -0.495952
0.474002 -0.477131 0.0989334
0.499471 0.47526 0.0899354
-0.510714 0.456998 0.0815098
0.463314 0.134033 0.489646
0.468131 0.505176 0.0871138
-0.501434 0.468226 0.10289
0.466185 0.0930647 0.50389
0.469579 0.115533 -0.497999
0.473029 0.514563 0.101725
0.457415 -0.500548 0.110049
0.503558 0.465494 0.111017
-0.504613 0.464357 0.0945681
0.450983 0.118117 0.490325
0.457892 0.124934 -0.487849
0.461902 0.503921 0.136502
0.45414 -0.501042 0.142735
-0.490521 0.464587 0.126623
0.473346 0.151012 0.491726
0.466055 0.149495 -0.500883
0.458927 -0.492999 0.13353
0.503844 0.461248 0.130484
-0.505748 0.47901 0.132911
0.463901 0.159974 0.499705
0.470288 0.15162 -0.489735
0.480635 -0.499626 0.15227
0.498615 0.442794 0.148899
-0.47735 0.47346 0.146911
0.472135 0.146504 0.489631
0.456043 0.47635 0.145794
0.470182 -0.494718 0.150767
0.507684 0.454568 0.148579
-0.508626 0.452537 0.147238
0.468659 0.182249 0.501064
0.463981 0.181177 -0.501241
0.452041 -0.508552 0.175605
0.505554 0.460033 0.164236
0.492962 0.199484 -0.494976
0.478369 0.490479 0.174314
0.46024 -0.50186 0.185821
0.514914 0.471986 0.171502
-0.496795 0.474019 0.184277
0.481625 0.197384 0.483019
0.468073 0.198398 -0.494127
0.461383 0.500607 0.171567
0.490534 0.473044 0.189216
-0.497407 0.481382 0.183883
0.483122 0.488434 0.18034
0.46057 -0.501082 0.195203
-0.504233 0.488033 0.208132
0.474348 0.204067 0.50028
0.462782 0.193948 -0.498632
0.460532 0.518926 0.217116
0.459935 -0.491275 0.207534
0.501963 0.480099 0.200955
0.475023 0.232589 0.511109
0.483062 0.211265 -0.493553
0.449991 0.500597 0.218198
0.478413 -0.502023 0.212138
0.488153 0.488546 0.219198
-0.503511 0.467297 0.214745
0.464118 0.230172 0.500998
0.466869 0.245304 -0.499817
0.460365 -0.501132 0.210633
0.488521 0.483697 0.222051
-0.502622 0.503393 0.223166
0.472224 0.24202 0.528024
0.445771 0.232868 -0.503163
0.462313 0.51179 0.239982
0.471147 -0.489732 0.24986
-0.498805 0.479635 0.229494
0.456569 0.242965 0.502475
0.465417 0.25539 -0.511813
0.485449 0.502458 0.25761
0.466249 -0.497132 0.237766
0.504406 0.474012 0.254985
-0.5038 0.467112 0.234589
0.470648 0.250089 0.504937
0.456946 0.257433 -0.496996
0.470326 -0.493651 0.24955
0.494718 0.476537 0.258409
-0.489193 0.49204 0.256709
0.472221 0.254559 0.510276
0.467254 0.267698 -0.489593
0.465723 0.497212 0.270448
0.476858 -0.501443 0.272956
0.487417 0.492078 0.261109
-0.519906 0.470579 0.261157
0.48065 0.273511 0.497534
0.469036 0.290099 -0.508934
0.476371 -0.492864 0.275047
0.492478 0.464804 0.285044
-0.506188 0.468437 0.291649
0.465576 0.296752 0.513997
0.480331 0.501741 0.294299
0.471647 -0.493645 0.285888
-0.49568 0.445953 0.290344
0.47123 0.298128 0.498976
0.46123 0.288906 -0.515863
0.458422 0.507544 0.295695
0.481765 -0.508407 0.295332
0.479732 0.475719 0.303905
-0.489578 0.451861 0.300111
0.469597 0.306082 0.502248
0.465381 0.308121 -0.51578
0.470807 0.501202 0.31854
0.455934 -0.511892 0.304525
0.50719 0.48778 0.303674
0.475646 0.331904 0.48126
0.459399 -0.498319 0.320551
0.487229 0.469371 0.324437
-0.509874 0.477736 0.303238
0.470137 0.317359 0.49427
0.459489 0.316926 -0.493866
0.481679 0.492846 0.335206
0.45345 -0.477024 0.333899
0.507581 0.468885 0.326004
-0.478613 0.474298 0.316098
0.479097 0.357343 0.489434
0.467972 0.336625 -0.491286
0.469808 0.507052 0.337438
0.475308 -0.505097 0.325172
-0.502845 0.462989 0.359098
0.455973 0.338885 0.495885
0.460397 0.330758 -0.484097
0.45776 0.486337 0.3381
0.476548 -0.487937 0.356774
0.509402 0.48526 0.329439
-0.493025 0.463586 0.34058
0.467545 0.371558 0.501933
0.480034 0.364536 -0.504908
0.449891 0.501666 0.356383
0.458865 -0.492816 0.38872
0.493402 0.481959 0.355502
-0.501577 0.465765 0.339317
0.481467 0.362155 0.514044
0.448962 0.386448 -0.496962
0.471315 0.472964 0.363462
0.46806 -0.49687 0.381328
0.504942 0.455866 0.369042
-0.501628 0.470019 0.386593
0.482579 0.383058 0.493836
0.457602 0.502261 0.361959
0.457284 -0.505803 0.381127
0.501732 0.47355 0.380587
-0.50234 0.45159 0.371672
0.459443 0.393144 0.493663
0.468903 0.493497 0.388812
0.4657 -0.504003 0.39244
0.496086 0.454892 0.384258
-0.487622 0.489688 0.387172
0.450214 0.397053 0.509629
0.469349 0.403573 -0.505778
0.475849 0.498789 0.395083
0.485492 0.470729 0.395822
0.46715 0.435924 0.491481
0.471278 0.39942 -0.507575
0.489041 0.504088 0.40206
0.470269 -0.494802 0.418822
0.499084 0.476327 0.41441
-0.492346 0.475555 0.420791
0.450897 0.416519 0.511073
0.462264 0.412398 -0.49983
0.491445 0.492916 0.416619
0.467304 -0.491478 0.416529
0.502405 0.470057 0.433693
-0.506886 0.467492 0.430121
0.479933 0.412463 0.498704
0.477402 0.427233 -0.497751
0.476654 0.484316 0.424436
0.477057 -0.500363 0.433992
0.501679 0.472667 0.432106
-0.521265 0.460319 0.435085
0.460298 0.450865 0.481936
0.476311 0.449875 -0.490316
0.462325 0.508374 0.44193
0.446913 -0.509597 0.441477
0.490952 0.470766 0.423826
-0.491871 0.485893 0.427619
0.473278 0.450277 0.493999
0.462585 0.438536 -0.507572
0.475073 0.487442 0.422465
0.456767 -0.494036 0.44196
0.497093 0.475134 0.456007
-0.513718 0.468189 0.455185
0.45266 0.457597 0.497309
0.487858 0.460553 -0.489628
0.473664 0.491547 0.451319
0.462149 -0.49122 0.443227
0.497154 0.466056 0.443572
-0.494083 0.473101 0.457635
0.474199 0.454149 0.495026
0.462412 0.505452 0.496668
0.458284 -0.490176 0.458661
0.496956 0.460405 0.468513
-0.506912 0.475723 0.463151
0.472585 0.473497 0.495808
0.462851 0.474681 -0.491802
0.466824 0.502845 0.486347
0.448284 -0.477671 0.47986
0.50477 0.466809 0.48697
-0.509599 0.49437 0.484945
0.466696 0.473442 0.521481
0.469016 0.492651 -0.497416
0.474143 0.51065 0.495687
0.465123 -0.513858 0.481187
0.504597 0.46574 0.493394
-0.495173 0.48183 0.486677
0.470737 0.502125 0.48482
0.463903 0.514082 -0.504127
0.471707 0.492573 0.486365
0.479432 -0.49467 0.50644
0.497751 0.451825 0.512136
-0.494268 0.460091 0.507953
0.471713 -0.501307 0.515662
0.470918 -0.482886 -0.486627
0.489981 0.495134 -0.516757
0.477053 -0.495381 -0.511932
0.508599 0.468872 -0.489467
-0.512136 0.474894 -0.49268
0.481677 -0.502129 0.483012
0.487847 -0.482397 -0.499841
0.482004 0.495321 -0.488794
0.479825 -0.499046 -0.49004
0.488943 0.490491 -0.493257
-0.496856 0.481378 -0.476904
0.482175 -0.481813 0.49857
0.497495 -0.477404 -0.498742
0.470538 0.513342 -0.479834
0.478069 -0.495408 -0.481571
0.487745 0.468153 -0.492603
-0.511679 0.48935 -0.476353
0.490966 -0.475101 0.501294
0.465033 -0.478608 -0.491142
0.487075 0.505088 -0.495412
0.475484 -0.511442 -0.46323
0.488957 0.476157 -0.478441
-0.497965 0.490361 -0.48527
0.481705 -0.468828 0.494425
0.482642 -0.467947 -0.505758
0.495807 0.4841 -0.460932
0.476029 -0.49843 -0.450556
0.508613 0.483924 -0.45672
-0.509484 0.490039 -0.456503
0.482208 -0.455876 0.494403
0.485417 -0.437101 -0.513608
0.488873 0.496038 -0.459344
0.465758 -0.497261 -0.452432
0.492485 0.486904 -0.452285
-0.507149 0.474807 -0.438645
0.492825 -0.426745 0.490715
0.477411 -0.438055 -0.498337
0.479269 0.497064 -0.44341
0.478867 -0.507403 -0.450066
0.501274 0.489266 -0.439544
-0.483594 0.487362 -0.430154
0.488335 -0.432194 -0.496011
0.478929 0.512796 -0.431337
0.473849 -0.524978 -0.435631
0.511755 0.471228 -0.455427
-0.506759 0.461698 -0.425383
0.492893 -0.43014 0.503687
0.470931 -0.427806 -0.500064
0.489102 0.493571 -0.440458
0.489201 -0.50252 -0.421918
0.48973 0.464694 -0.416523
-0.499085 0.476054 -0.417479
0.485215 -0.406074 0.493256
0.464454 -0.421706 -0.517368
0.493978 0.499133 -0.402585
0.488672 -0.500774 -0.399823
-0.510716 0.488794 -0.416486
0.492252 -0.412505 0.492
0.475441 -0.399672 -0.519058
0.494301 0.4925 -0.385672
0.47919 -0.510275 -0.393796
0.507114 0.481943 -0.394965
-0.500508 0.49089 -0.400441
0.471855 -0.377967 0.505849
0.473949 -0.397331 -0.495085
0.476014 0.493254 -0.368237
0.467912 -0.484594 -0.385981
-0.48597 0.482558 -0.384486
0.497576 -0.382142 0.5171
0.482375 -0.384971 -0.481107
0.483636 0.512962 -0.369729
0.484673 -0.488402 -0.354588
0.507616 0.490089 -0.380431
-0.491324 0.478555 -0.381339
0.483827 -0.35674 0.497021
0.479166 -0.363283 -0.493748
0.492335 0.508459 -0.368766
0.484444 -0.488112 -0.356466
0.506725 0.469088 -0.380163
-0.508946 0.48384 -0.382909
0.488554 -0.35828 0.503459
0.47941 -0.349648 -0.521167
0.470121 0.517524 -0.364577
0.485491 -0.502301 -0.360341
0.499538 0.480194 -0.360576
-0.520631 0.472948 -0.352127
0.475602 -0.346237 0.508709
0.480096 -0.351713 -0.511218
0.47459 -0.502046 -0.352122
0.495992 0.485136 -0.364802
-0.503698 0.466356 -0.354335
0.484326 -0.346541 0.500936
0.475093 -0.315366 -0.499616
0.473115 -0.512235 -0.326192
0.496902 0.468509 -0.34291
-0.508736 0.463053 -0.342039
0.488615 -0.340705 0.495945
0.464076 -0.339705 -0.505046
0.491428 0.489721 -0.311227
0.473389 -0.504302 -0.341127
0.496277 0.480434 -0.333003
-0.495129 0.470732 -0.339913
0.476637 -0.308153 0.490657
0.495775 -0.329798 -0.507725
0.467633 0.492322 -0.326977
0.490539 -0.502965 -0.323763
0.480027 0.481236 -0.312449
-0.516115 0.488472 -0.321278
0.476171 -0.298206 0.497455
0.485445 -0.299741 -0.498794
0.481532 0.514787 -0.28677
-0.513677 0.475734 -0.318183
0.47435 -0.312121 0.499286
0.492024 -0.282203 -0.480017
0.48733 0.494224 -0.312003
0.482982 -0.496945 -0.287865
-0.481963 0.488375 -0.289747
0.493673 -0.270188 0.501147
0.486533 -0.288761 -0.504341
0.479489 0.502933 -0.286
0.481951 -0.496125 -0.292058
0.518002 0.494316 -0.290791
-0.498693 0.475693 -0.2938
0.467287 -0.271738 -0.488965
0.473766 0.485415 -0.284451
0.495009 -0.495454 -0.291554
0.505804 0.470502 -0.27432
-0.504108 0.472621 -0.262936
0.49029 -0.265378 0.501804
0.469066 -0.272285 -0.497561
0.481517 0.503236 -0.261621
0.481382 -0.497073 -0.258555
0.488781 0.466416 -0.261978
-0.509797 0.47944 -0.248133
0.488199 -0.260521 0.492177
0.491054 -0.24707 -0.498495
0.480695 0.499048 -0.248857
0.487825 0.47286 -0.268296
-0.499732 0.497379 -0.255254
0.486055 -0.233358 0.483056
0.493969 -0.248077 -0.497249
0.461836 -0.506895 -0.257142
0.492846 0.486369 -0.22972
0.470532 -0.228229 0.501836
0.481368 -0.23396 -0.50222
0.479017 0.512806 -0.241661
0.507221 0.480448 -0.244359
0.502723 -0.232855 0.503173
0.497293 -0.231492 -0.488778
0.467602 0.501835 -0.216808
0.473098 -0.513042 -0.241577
0.50568 0.493788 -0.236024
-0.516525 0.473618 -0.234602
0.480953 -0.197815 0.502476
0.480302 -0.227945 -0.519833
0.475187 0.497297 -0.21581
0.511738 0.507254 -0.214671
-0.504002 0.463737 -0.224227
0.456734 -0.197032 0.498509
0.471498 -0.197929 -0.487718
0.491187 0.493435 -0.187621
0.489032 -0.497144 -0.207171
0.508844 0.489074 -0.20132
-0.506361 0.498976 -0.203437
0.49529 -0.186028 0.484591
0.473263 -0.206568 -0.484858
0.472801 0.502023 -0.188397
0.478149 -0.501459 -0.188723
0.47079 -0.201328 0.501922
0.471429 -0.173602 -0.489784
0.469365 0.479649 -0.173986
0.475253 -0.510281 -0.171641
-0.490452 0.498912 -0.185447
0.490443 -0.188402 -0.497679
0.460636 0.506074 -0.18261
0.490788 -0.50333 -0.193507
0.506256 0.487107 -0.181662
-0.516604 0.462024 -0.177514
0.480164 -0.155574 0.48651
0.485513 0.496411 -0.150696
0.471297 -0.50034 -0.175392
0.49263 0.463664 -0.172949
-0.483309 0.486948 -0.147907
0.472413 -0.139709 0.510947
0.485953 -0.149952 -0.490108
0.488994 -0.499752 -0.139517
0.507327 0.463868 -0.15592
-0.496209 0.492412 -0.156062
0.488036 -0.151682 -0.501463
0.463432 -0.501939 -0.137105
0.494538 0.502682 -0.168933
-0.506041 0.485811 -0.132961
0.478033 -0.136613 0.510345
0.475845 -0.140433 -0.487124
0.48482 0.508026 -0.14972
0.476017 -0.502195 -0.15622
0.494301 0.483966 -0.154849
-0.50612 0.481687 -0.149292
0.47262 -0.124519 0.522328
0.484616 -0.124897 -0.494653
0.486174 0.512511 -0.121314
0.475092 -0.493354 -0.129441
0.511173 0.467105 -0.115355
-0.507326 0.469409 -0.119466
0.502959 -0.119929 -0.496311
0.490812 0.486452 -0.10547
0.474966 -0.509963 -0.1088
0.498808 0.474407 -0.106188
-0.493532 0.469416 -0.109144
0.492412 -0.101157 0.501604
0.477932 0.502152 -0.0939523
0.471121 -0.508582 -0.0995067
0.510066 0.476254 -0.113503
-0.483912 0.47124 -0.095117
0.466094 -0.0888812 0.4981
0.476102 -0.105464 -0.49776
0.516416 0.484651 -0.0873176
-0.492885 0.483673 -0.112204
0.482052 -0.0917985 0.519016
0.493712 -0.104118 -0.492972
0.489719 0.499515 -0.0926105
0.50537 0.480525 -0.0932831
-0.502346 0.476998 -0.0794326
0.490366 -0.0683556 0.498776
0.498712 -0.0707133 -0.498202
0.477626 0.498871 -0.0718424
0.50885 0.480991 -0.0710051
-0.506885 0.477188 -0.0882278
0.473631 -0.0487118 0.502917
0.473595 -0.0624524 -0.498672
0.495716 -0.492555 -0.0812084
0.498931 0.480308 -0.0744891
-0.488175 0.474683 -0.0743673
0.484794 -0.051486 0.502083
0.472352 -0.0594122 -0.513898
0.480393 -0.49553 -0.0557683
-0.487192 0.497952 -0.0618201
0.484512 -0.0604124 0.505876
0.478245 -0.0313455 -0.495849
0.475801 0.51196 -0.0388394
0.488319 -0.488884 -0.0387402
0.511564 0.493796 -0.0362053
0.466833 -0.0393409 0.501549
0.488598 -0.0488782 -0.48607
0.489451 0.48187 -0.0206481
0.49024 -0.0198752 0.50147
0.475632 -0.012484 -0.491066
0.467532 0.498282 -0.0143184
0.494583 -0.493122 -0.0237382
0.504393 0.476749 -0.0279238
-0.49899 0.482634 -0.0146786
0.467935 -0.0112803 0.526453
0.492475 -0.504764 -0.0260067
0.498008 0.475759 -0.0112311
-0.500073 0.477342 -0.0122868
0.475988 0.00440495 0.491793
0.490734 -0.00230249 -0.501322
0.474024 0.484197 -0.0081815
0.477559 -0.504887 0.0123979
0.503337 0.489641 0.00753547
-0.491847 0.478734 -0.00593425
0.484424 0.00187816 0.487457
0.46719 -0.00171789 -0.501009
0.476276 0.506742 -0.00985506
0.468555 -0.496009 0.0192042
0.519668 0.49231 0.0286705
-0.494403 0.478427 0.00140227
0.479253 -0.0112127 0.51429
0.491228 0.00778976 -0.501053
0.491519 0.515519 0.0136231
0.472979 -0.491447 0.010445
0.491312 0.476743 0.0204506
0.490904 0.0184612 0.504042
0.490336 0.0176763 -0.50414
0.475341 0.489533 0.0158499
0.474955 -0.50055 0.0285728
0.497157 0.496327 0.0362512
-0.50232 0.476964 0.0181913
0.470935 0.0467767 0.518258
0.479118 0.0302671 -0.499063
0.477755 0.502395 0.031554
0.486832 -0.485965 0.048831
-0.500818 0.458046 0.0484345
0.482859 0.0620832 0.488436
0.495195 0.0298462 -0.519891
0.497909 -0.50572 0.0355428
0.503993 0.491632 0.0392469
-0.474705 0.473545 0.040143
0.479908 0.0492453 0.502995
0.467816 0.0616446 -0.514723
0.469119 0.498175 0.0663517
0.473283 -0.491031 0.0400586
0.494731 0.483039 0.0595866
-0.505525 0.473613 0.0607955
0.481126 0.0538799 0.499585
0.474317 0.0677129 -0.492636
0.484445 0.495478 0.0660216
0.475883 -0.486364 0.0653788
0.501383 0.479927 0.0669261
0.468342 0.0747492 0.501926
0.477824 0.0871662 -0.504658
0.479957 0.502455 0.0868541
0.495701 -0.499129 0.0682284
0.503693 0.474327 0.0803522
-0.49971 0.478277 0.074081
0.459567 0.0901459 0.492828
0.473518 0.104473 -0.503103
0.4868 0.494735 0.0751871
0.510039 0.486547 0.0678335
0.505517 0.112842 0.510705
0.479719 0.500589 0.107316
0.489041 -0.497565 0.100689
-0.515019 0.489112 0.0959145
0.477564 0.122358 0.50515
0.487145 0.493581 0.109917
0.482019 -0.491118 0.0931665
0.495456 0.486184 0.101492
-0.499593 0.485563 0.0935323
0.49637 0.107854 0.485553
0.475618 -0.492563 0.101116
0.502991 0.479972 0.111796
-0.505108 0.48738 0.122136
0.478875 0.122461 0.491644
0.460131 0.133661 -0.50596
0.493383 0.480638 0.131703
0.473064 -0.508242 0.120491
0.513854 0.471897 0.117584
-0.488151 0.499166 0.126998
0.478011 0.137583 -0.499917
0.499995 0.508286 0.152122
0.490634 -0.505804 0.141327
0.496961 0.476252 0.149796
-0.495823 0.487861 0.138773
0.496019 0.141166 0.501403
0.494963 0.134394 -0.485108
0.47773 0.501575 0.155099
0.483603 -0.493418 0.159187
0.50536 0.484353 0.143944
-0.520162 0.47968 0.163537
0.478244 0.156448 0.497649
0.469091 0.166779 -0.485112
0.467208 -0.504775 0.159746
0.5039 0.487335 0.161754
-0.492763 0.471118 0.152731
0.492202 0.166808 0.51062
0.490247 0.192669 -0.511483
0.483791 0.493497 0.180577
0.464888 -0.498135 0.149021
0.491556 0.48417 0.166523
-0.516154 0.49773 0.173333
0.490677 0.188659 -0.498297
0.492704 0.504416 0.17465
0.476079 -0.512701 0.176961
0.510295 0.44479 0.175654
0.510236 0.192648 0.489429
0.489898 0.188052 -0.505197
0.493834 0.498341 0.193573
0.488207 -0.495275 0.180887
0.526193 0.486457 0.189824
-0.475793 0.490152 0.187763
0.479414 0.205483 0.506347
0.47751 0.190494 -0.491971
0.479938 0.509302 0.189059
0.491854 0.473509 0.208914
-0.488678 0.480389 0.183628
0.486824 0.198117 0.499264
0.49286 0.187809 -0.505262
0.481286 0.506364 0.211403
0.473562 -0.505356 0.208442
0.49279 0.483756 0.206703
-0.504879 0.461066 0.202696
0.47536 0.223187 -0.488582
0.473525 0.483977 0.208748
0.493138 -0.481588 0.208766
0.484891 0.492234 0.216595
-0.490101 0.458953 0.226579
0.485686 0.235541 0.505099
0.484369 0.228438 -0.501195
0.487681 0.495511 0.237452
