ply
format ascii 1.0
comment sampling resolution: 0.01
comment noise level: 0.03
comment Created by Open3D
element vertex 1633
property double x
property double y
property double z
end_header
-0.0940876 0.440143 0.467452
-0.0852184 0.470835 -0.482575
-0.109282 0.512483 0.441392
-0.0764439 -0.50461 0.420948
-0.134864 0.460432 0.535344
-0.052902 0.484179 -0.536087
-0.140485 0.491417 0.452497
-0.0446806 -0.53093 0.464522
0.458156 -0.0698538 0.403527
-0.476381 -0.0154663 0.457467
-0.0993519 0.460126 0.479488
-0.0748354 0.477776 -0.427787
-0.0798783 0.455281 0.475831
0.5193 -0.0981954 0.493579
-0.495282 -0.154311 0.461594
-0.0607879 0.534872 0.495353
-0.0615905 0.477486 -0.513141
-0.086992 0.541987 0.538505
-0.0980856 -0.491157 0.437431
0.482937 -0.0796488 0.54129
-0.490591 -0.0805452 0.485579
-0.117242 0.527922 0.508566
-0.0725764 0.455811 -0.475425
-0.060191 0.45446 0.54341
-0.0990607 -0.508329 0.454034
0.471066 -0.0714495 0.501695
-0.461226 -0.0649922 0.495706
-0.0552464 -0.496046 0.462576
-0.102012 -0.516875 -0.513593
-0.0827338 0.501353 -0.530458
-0.0647693 -0.537972 -0.477548
0.483993 -0.0727172 -0.511676
-0.488194 -0.0359502 -0.488583
-0.0947103 -0.505655 0.548389
-0.0469606 -0.476412 -0.500622
-0.128657 0.527433 -0.484807
-0.0478183 -0.537595 -0.536471
-0.534682 -0.0820408 -0.45958
-0.0534593 -0.518173 0.544266
-0.0821001 -0.502459 -0.500507
-0.123554 0.483494 -0.441608
-0.0881134 -0.470469 -0.46862
0.492817 -0.0279859 -0.43099
-0.0830958 -0.431316 0.50209
-0.069784 0.48619 -0.474266
0.470425 -0.102738 -0.451252
-0.0810815 -0.467793 -0.524296
-0.0659342 0.495285 -0.445633
-0.0723982 -0.498116 -0.450429
-0.528825 -0.0847249 -0.39261
-0.0764845 -0.460126 0.513772
-0.0701353 -0.44754 -0.54343
-0.0547947 0.516383 -0.500045
-0.0685775 -0.480262 -0.446077
0.529364 -0.103981 -0.463744
-0.0453042 -0.442047 0.510346
-0.125837 -0.469206 -0.453327
-0.136178 0.530112 -0.413376
0.531269 -0.0814175 -0.424833
-0.0858082 -0.389732 0.498444
-0.0503702 -0.482359 -0.521972
-0.093238 -0.532145 -0.472203
0.507252 -0.0804797 -0.433423
-0.513483 -0.073888 -0.438485
-0.0413821 -0.455721 -0.533652
-0.12907 -0.508293 -0.401857
0.495001 -0.0881729 -0.411174
-0.0917687 -0.392025 0.516786
-0.0271855 -0.406084 -0.515492
-0.0943136 0.481305 -0.412622
-0.107675 -0.416208 0.511765
-0.0848486 0.481937 -0.373965
0.472446 -0.0582296 -0.389891
-0.525991 -0.0725273 -0.414099
-0.0658182 -0.356408 0.447278
-0.106142 -0.420716 -0.558481
0.459059 -0.094224 -0.440742
-0.515551 -0.0810919 -0.331667
-0.0718461 -0.37993 0.533436
-0.0741462 -0.484915 -0.412442
-0.106424 -0.516293 -0.362045
-0.519294 -0.0506375 -0.398543
-0.0318186 0.521923 -0.356156
-0.0489276 -0.484719 -0.349619
0.528555 -0.0605273 -0.357237
-0.0920612 -0.515237 -0.3804
-0.0597606 0.474543 -0.347952
-0.489615 -0.0196475 -0.35079
-0.0948033 0.258327 -0.399691
-0.0755085 0.384517 0.526453
-0.0817718 0.491729 0.367851
-0.492333 -0.09503 0.37874
-0.0817884 0.553291 0.367954
-0.0937053 0.398318 0.52531
-0.0620882 -0.495968 0.3391
0.444907 -0.0755072 0.346021
-0.0280151 0.384029 0.536456
-0.0592361 0.330317 -0.496063
-0.0675012 -0.501048 0.404091
0.496743 -0.0773614 0.409606
-0.038407 -0.44265 0.34318
0.466713 -0.0819406 0.398478
-0.0636053 0.428684 -0.507348
0.503612 -0.065101 0.356648
-0.498149 -0.0550067 0.352314
-0.131897 0.444159 0.574178
-0.0404207 0.400679 -0.50212
-0.0304803 -0.500423 0.369697
0.466712 -0.0745101 0.439095
0.000248055 0.436623 0.586022
-0.0870544 0.38585 -0.515969
-0.064168 -0.482734 0.396347
-0.553471 -0.0786347 0.410245
-0.0794355 0.444953 -0.46875
-0.518893 -0.0933935 0.431322
-0.133638 0.475319 0.555796
-0.041309 0.426402 -0.493446
-0.077416 -0.468122 0.440971
0.558873 -0.0150032 0.444126
-0.54243 -0.0824442 0.45666
-0.0517825 0.501545 0.434929
-0.0635759 0.509937 0.448921
0.448928 -0.109329 0.447472
-0.482894 -0.167021 0.416452
-0.0893455 0.464777 0.546185
-0.0599 0.496927 -0.461084
-0.137224 0.449131 0.42976
3.89786e-05 -0.506055 0.419646
-0.505585 -0.0645286 0.499195
-0.065477 0.468193 0.510541
-0.130912 0.508064 -0.492963
-0.0590162 0.553278 0.44438
-0.0506614 -0.436787 0.479878
0.511513 -0.0998574 0.484461
-0.498649 -0.0937761 0.476732
-0.0377302 0.51037 0.55597
-0.0503373 0.439244 -0.505667
-0.0468606 0.475669 0.482196
-0.041103 -0.512965 0.459556
0.538955 -0.0419087 0.496448
-0.497319 -0.0987302 0.492215
-0.0831897 0.52593 0.532149
-0.0902466 0.490081 -0.461096
-0.0877129 0.487222 0.435935
-0.0966189 -0.514987 0.47284
0.475068 -0.111664 0.460953
-0.497081 -0.138277 0.524332
-0.0562805 0.507963 0.503852
-0.0769319 0.571777 -0.555443
-0.0139662 0.471919 0.482586
-0.0650945 -0.39722 0.53358
0.528412 -0.0688646 0.479668
-0.522939 -0.0695258 0.467901
-0.0498521 -0.49238 0.508465
-0.0479421 -0.493246 -0.487657
-0.0700749 0.507727 -0.521019
-0.0560761 -0.540985 -0.505663
0.45967 -0.0301372 -0.540754
-0.506482 -0.0131234 -0.537064
-0.0432744 -0.523282 0.497863
-0.0787024 -0.491384 -0.496697
-0.158366 0.495852 -0.492182
-0.0334303 -0.430022 -0.457539
0.489967 -0.0383613 -0.449088
-0.504827 -0.0474139 -0.509192
-0.0828084 -0.498403 -0.431829
-0.112083 0.51347 -0.463735
-0.0267707 -0.463616 -0.474096
0.462358 -0.081782 -0.528817
-0.548451 -0.0610668 -0.507838
-0.0391332 -0.51618 0.498717
-0.0691072 -0.408787 -0.483334
-0.0273992 0.483934 -0.518421
-0.0386493 -0.454688 -0.516263
0.511557 -0.115493 -0.448676
-0.449517 -0.0081503 -0.537653
-0.0450893 -0.446 0.468747
-0.101954 -0.472162 -0.467794
0.49432 0.0150777 -0.43701
-0.457223 -0.0357301 -0.478985
-0.0542274 -0.414178 0.543053
-0.0502465 -0.459236 -0.504381
0.00250956 0.453045 -0.447916
-0.0999496 -0.49795 -0.493085
0.485965 -0.0718934 -0.412392
-0.473033 -0.0689836 -0.477714
-0.0592477 -0.479304 -0.495588
-0.11029 -0.570194 -0.448321
0.464349 -0.10205 -0.464255
-0.529543 -0.0751767 -0.447624
-0.0580842 -0.403206 0.509486
-0.0821113 -0.415591 -0.481163
0.484252 -0.062544 -0.397492
-0.514009 -0.0566554 -0.414732
-0.0750226 -0.401526 0.553141
-0.066099 0.521743 -0.410747
-0.0562748 -0.448702 -0.409188
0.517061 -0.124055 -0.411754
-0.506645 -0.0642173 -0.404293
-0.059537 -0.364622 0.479061
-0.107563 -0.485925 -0.405576
-0.0925914 0.534126 -0.399144
0.511545 -0.0553207 -0.418672
-0.0644304 -0.439971 0.502748
0.521756 -0.0653088 -0.446455
-0.480343 -0.113955 -0.366377
-0.0500344 -0.35695 -0.53323
0.49799 -0.0964273 -0.41493
-0.0593389 -0.395381 -0.504773
-0.0768727 0.498991 -0.362466
-0.571644 -0.0781015 -0.422429
0.520566 -0.0804274 0.32837
-0.538276 -0.0849538 0.334012
-0.092506 0.305942 -0.451255
-0.00571091 -0.521264 0.359801
-0.474883 -0.053387 0.369016
-0.0782199 0.409066 0.457305
-0.0407337 0.37049 -0.506292
-0.0663971 0.498198 0.354428
-0.533447 -0.0538884 0.340637
-0.0721096 0.338274 -0.47317
-0.119498 0.476164 0.40562
0.517777 -0.0856818 0.435612
-0.0518198 0.366732 0.463464
-0.105165 -0.542245 0.394147
0.459063 -0.0615733 0.305655
-0.0612077 0.353975 0.466025
-0.510538 -0.0992001 0.424767
-0.0280822 0.389555 -0.542619
-0.0764056 0.524801 0.419825
-0.113757 0.412318 0.522891
-0.0797197 0.411889 -0.480473
-0.0281762 -0.474036 0.40985
0.536512 -0.131463 0.472596
-0.0729867 0.460585 0.453739
-0.0385384 0.504605 0.434138
-0.0724115 -0.506824 0.406091
-0.465488 -0.0690852 0.45399
-0.112122 0.44357 0.475755
-0.0739824 0.42771 -0.487928
-0.0956265 -0.523988 0.447683
-0.0747861 0.465153 0.496447
-0.0582696 0.462084 -0.462973
-0.0593971 -0.495207 0.467879
0.475929 -0.0933061 0.417563
-0.0566941 0.396485 -0.478256
0.0329536 0.446798 0.447296
0.476105 -0.119602 0.419967
-0.487549 -0.0862715 0.45146
-0.0536407 0.443529 -0.476578
-0.0457991 0.49666 0.448877
-0.0907834 -0.501199 0.44418
0.467463 -0.0649445 0.470324
-0.522895 -0.103051 0.415796
-0.0424616 0.479673 0.479993
-0.0259174 0.410525 -0.476579
-0.0321632 0.486012 0.465989
-0.0856116 -0.491721 0.459174
-0.480444 -0.0546808 0.469369
-0.11463 0.530942 0.521277
-0.0670631 0.467341 0.502236
-0.0543693 -0.588086 0.530599
0.489969 -0.0569573 0.498405
-0.487593 -0.0941566 0.47991
-0.106897 0.463422 0.480438
-0.0896922 0.52062 -0.44391
-0.0671395 0.456821 0.543817
-0.0314254 -0.537587 0.510322
0.44798 -0.037173 0.471605
-0.462894 -0.0238429 0.476851
-0.0725001 -0.483602 0.473003
-0.0542489 -0.521941 -0.522788
-0.0565319 0.477254 -0.489717
-0.0459398 -0.552226 -0.500542
0.479994 -0.0838266 -0.503279
-0.504148 -0.0459639 -0.508924
-0.077163 -0.483141 0.496503
-0.0548881 -0.489706 -0.504324
-0.0799959 0.509838 -0.49707
-0.0587248 -0.575322 -0.483118
0.454582 -0.0543915 -0.435175
-0.463053 -0.0262116 -0.449867
-0.0421156 -0.447638 0.479549
-0.0313735 -0.48027 -0.482901
-0.0566948 0.470365 -0.508349
-0.0668547 -0.479277 -0.474873
0.528969 -0.0772628 -0.469237
-0.473447 -0.0375812 -0.49092
-0.0768813 -0.479953 0.49483
-0.00352081 -0.461829 -0.518057
-0.0381696 0.505707 -0.47892
-0.0284106 -0.515433 -0.508316
-0.47065 -0.0246407 -0.510305
-0.000942038 -0.504112 0.514081
-0.0504642 -0.462971 -0.475536
-0.0822418 0.45199 -0.404675
-0.0462017 -0.518922 -0.48422
0.51343 -0.0481175 -0.460948
-0.527405 -0.0314062 -0.484522
-0.0136125 -0.435341 0.539139
-0.0023324 -0.388886 -0.482418
-0.0199478 0.477743 -0.414866
-0.0613319 -0.489049 -0.396459
0.509123 -0.111656 -0.45101
-0.539515 -0.0523515 -0.498645
-0.0614647 -0.454151 0.530491
-0.0691654 -0.457532 -0.53521
0.545048 -0.0383872 -0.408361
-0.488949 -0.0353854 -0.478721
-0.104035 -0.422565 0.512399
-0.0185069 -0.391543 -0.468045
-0.459514 -0.0601878 -0.4155
-0.0932237 -0.454165 0.505638
0.522175 -0.0458826 -0.413886
-0.529291 -0.0653133 -0.413528
-0.0336233 -0.457152 0.4569
-0.0758079 -0.432148 -0.489349
-0.0579832 0.522721 -0.422817
0.467449 -0.0652384 -0.400969
0.0195424 -0.42909 0.503499
-0.056752 0.497907 -0.499264
-0.48692 -0.0878625 -0.393667
-0.0274155 0.439595 -0.40511
-0.0915234 -0.441427 -0.412323
0.519505 0.0289354 -0.384228
0.490775 -0.0954574 -0.369117
-0.502774 -0.0250244 -0.390763
0.486513 -0.0886663 -0.382294
-0.0138644 -0.332192 -0.469183
-0.0601446 -0.503015 -0.316807
-0.482667 -0.0365118 -0.366582
-0.0203205 -0.361327 -0.473777
-0.114826 0.522992 0.343871
-0.0607342 -0.467414 0.370644
-0.000177746 0.338277 -0.446075
-0.0552201 -0.503927 0.350854
-0.0169304 0.34705 0.522441
-0.50552 -0.0209906 0.347264
-0.0409502 0.471706 0.399932
-0.451728 -0.0580685 0.38945
-0.0179318 0.534279 0.366462
-0.508836 -0.0865071 0.393795
-0.0419358 0.395753 0.47458
-0.0169541 0.530445 0.453657
-0.0946133 -0.483056 0.366989
-0.0230956 0.458576 0.413597
-0.0276349 0.375193 0.496202
-0.0214132 0.421053 -0.518755
-0.0569879 0.510452 0.419658
0.460852 -0.0696476 0.382943
-0.460063 -0.0566103 0.377445
-0.0788211 0.405062 0.515997
-0.0201919 0.447112 -0.458562
-0.0308979 0.441203 0.451894
0.0163717 -0.491101 0.471322
0.492764 -0.0966551 0.450377
-0.0280035 0.395778 0.497012
-0.0638243 0.469968 -0.494982
-0.0907017 -0.526903 0.429501
-0.484294 -0.0402572 0.413812
-0.0755 0.472082 0.541615
-0.0794997 0.425276 -0.426624
0.0133761 0.549132 0.424983
-0.0419505 -0.568903 0.400877
0.480779 -0.0708894 0.422112
-0.0663869 0.450002 0.523463
-0.0516518 0.473196 -0.550298
-0.0708971 0.526861 0.461251
-0.087633 -0.515898 0.463923
-0.515628 -0.0975017 0.481205
-0.0878846 0.515746 -0.48207
-0.106748 0.509294 0.493769
-0.0789717 -0.51949 0.439573
0.422264 -0.042295 0.456973
-0.486999 -0.0542077 0.475317
-0.0643837 0.497557 0.488253
-0.034364 0.455066 -0.503215
0.0106828 0.527036 0.466615
-0.0732759 -0.481532 0.513704
0.538408 -0.0721708 0.492228
-0.474195 -0.0980446 0.439312
-0.0268783 0.491731 0.472862
-0.0307929 0.547806 -0.490848
-0.105432 0.565966 0.51054
-0.0216847 -0.454429 0.454899
0.495562 -0.0619243 0.510615
-0.520386 -0.0414881 0.488055
-0.0846095 0.504368 0.485123
-0.0134233 0.502112 -0.526851
-0.0428541 0.456562 0.477573
-0.0323071 -0.491993 0.524872
0.525699 -0.0461649 0.495048
-0.487864 -0.0218829 0.508956
-0.0117624 -0.466339 0.514314
-0.0174751 -0.496692 -0.463392
-0.080054 0.474707 -0.507118
-0.0690033 -0.500412 -0.561692
0.499891 -0.0113397 -0.5002
-0.536043 -0.0556859 -0.548285
0.0346204 -0.486334 0.524989
-0.0536948 -0.47238 -0.432458
-0.0371551 0.475481 -0.517752
-0.0718765 -0.586346 -0.476124
0.468021 -0.0819579 -0.506539
-0.0522343 -0.478296 0.495191
-0.0506282 -0.491681 -0.478748
-0.0575817 0.512569 -0.486279
-0.028129 -0.507275 -0.499976
0.527705 -0.0354561 -0.44355
-0.513802 -0.0819437 -0.502294
0.00562987 -0.401787 -0.554423
-0.0629212 0.528131 -0.478823
-0.0329465 -0.536417 -0.39102
0.473148 -0.0524426 -0.433054
-0.46827 -0.0633329 -0.405918
-0.0459877 0.529684 -0.466225
-0.0319591 -0.495399 -0.4483
0.501986 -0.0961127 -0.437162
-0.443708 -0.0650392 -0.46231
-0.0331912 -0.478492 0.489419
0.00245772 -0.477311 -0.514748
-0.115008 0.536079 -0.433425
-0.504141 -0.068482 -0.447842
-0.0682452 -0.41634 0.490681
-0.0616815 0.534609 -0.403932
-0.0349474 -0.466498 -0.401872
-0.492737 -0.068438 -0.426798
-0.0538469 -0.419607 -0.456621
-0.0355758 0.47517 -0.413464
-0.0219634 -0.498827 -0.423086
0.486367 -0.03157 -0.396776
-0.442336 0.030459 -0.42266
-0.0360789 -0.412678 0.509788
-0.0306163 0.503222 -0.402252
-0.0407739 -0.513606 -0.451062
-0.47366 -0.0547633 -0.435465
-0.0311084 -0.411749 0.409095
-0.0394894 -0.399024 -0.481778
-0.0399453 -0.419913 -0.383539
0.477256 -0.0457432 -0.396932
-0.080906 -0.371527 0.4669
-0.0991359 0.508888 -0.344951
-0.00426299 -0.399435 0.498069
0.012424 0.457457 -0.382619
-0.0230069 -0.511521 -0.415464
-0.432816 -0.0776455 -0.46462
-0.067564 -0.302506 -0.491967
-0.0183681 -0.382568 0.486136
-0.0856982 -0.378142 -0.554509
0.0310121 -0.509286 -0.377743
-0.0540532 -0.48992 -0.373556
0.018141 -0.327076 -0.511888
0.480225 -0.0455065 0.318021
-0.0638756 0.308737 0.526463
-0.538519 0.0302772 0.40696
-0.0168195 0.387809 0.523083
-0.109625 0.38818 -0.522729
-0.0380384 0.535396 0.440925
-0.528043 0.00906975 0.374708
-0.0519884 0.453517 0.408054
-0.0484065 -0.480239 0.452031
0.502893 -0.0124844 0.372583
-0.483686 -0.0448646 0.380599
-0.0487935 -0.493921 0.428499
0.450957 -0.046823 0.398109
-0.0313128 0.437368 -0.474889
-0.0439488 0.501468 0.354746
-0.531622 -0.00831544 0.411613
0.00153628 0.411469 0.559057
-0.509281 -0.0960229 0.452855
-0.043502 0.424249 0.515016
-0.473223 -0.0326833 0.419415
-0.0472841 0.410081 0.492886
-0.0393341 0.437727 -0.520954
-0.0573441 0.536051 0.442425
-0.105852 -0.479977 0.442942
0.503267 0.0119462 0.43209
-0.528268 -0.0910196 0.464419
-0.0301673 0.46139 -0.477696
-0.0183329 0.51522 0.423061
0.560945 -0.0395247 0.467214
-0.514031 -0.0527705 0.440267
-0.0928567 0.468268 0.545426
-0.053424 0.490448 -0.485389
-0.0212398 0.523694 0.465075
-0.0603037 -0.532407 0.440327
0.419716 -0.0167357 0.459197
-0.537763 -0.0451972 0.442148
-0.00938197 0.454116 0.543339
-0.0312819 0.466282 -0.521532
-0.0367178 0.49618 0.486422
-0.0621245 -0.477405 0.491943
0.532305 -0.0087022 0.467052
-0.488356 -0.0940504 0.49098
-0.0518344 0.429048 0.485638
-0.0517268 0.511776 -0.526783
-0.025476 0.498061 0.460166
0.0113422 -0.52105 0.504731
0.534786 -0.054685 0.432694
-0.527971 -0.00911452 0.499076
-0.0420315 0.477328 0.495558
-0.109907 0.474612 -0.500002
-0.0673581 0.487508 0.452224
-0.0353379 -0.471971 0.48967
0.530108 -0.0422155 0.466536
-0.470022 -0.072917 0.482182
-0.0522277 0.475088 0.445929
-0.00782517 0.479382 -0.484309
-0.0633378 0.566211 0.495963
0.0073505 -0.514344 0.479991
0.5431 -0.0645722 0.523438
-0.468046 -0.0424178 0.474929
0.020816 -0.506197 0.536641
-0.0427405 -0.516877 -0.539543
-0.0697756 0.504472 -0.519371
-0.0682903 -0.52679 -0.493706
0.484308 -0.039862 -0.442708
-0.501967 0.0184595 -0.530767
-0.0656751 -0.526452 0.544988
0.0369774 -0.505049 -0.476116
-0.0550797 0.481722 -0.461476
-0.0286863 -0.533719 -0.558022
0.483414 -0.113213 -0.479666
-0.513202 -0.0752676 -0.49321
-0.00548986 -0.495973 0.47686
-0.0258239 -0.510064 -0.499986
-0.0191746 0.438831 -0.445198
-0.0304558 -0.48342 -0.500464
0.483078 -0.0564276 -0.489371
-0.509335 -0.0136123 -0.403226
-0.0308421 -0.455383 0.470249
-0.0443499 -0.432745 -0.520483
-0.0269132 0.52681 -0.481434
-0.0762671 -0.48096 -0.47466
0.482219 -0.0209756 -0.432475
-0.518137 0.0104341 -0.398586
-0.025099 -0.434618 0.485973
0.00362772 -0.421643 -0.542613
-0.0406022 0.494803 -0.478231
0.0171192 -0.507288 -0.465603
0.517255 -0.0250168 -0.48376
-0.518388 0.0114217 -0.450939
-0.0176519 -0.405352 0.455579
-0.120025 -0.468593 -0.502185
-0.0130974 0.485796 -0.480806
0.448944 -0.00540939 -0.450556
-0.506337 -0.0678632 -0.453727
0.0403386 -0.451851 -0.435979
-0.0695532 -0.501121 -0.480143
0.4977 -0.0381908 -0.432251
-0.101047 -0.413076 0.504476
0.00328755 -0.421178 -0.445037
-0.473127 -0.0582303 -0.432628
-0.0111498 -0.415134 0.49197
-0.0476636 -0.487264 -0.408245
-0.0896913 -0.483329 -0.409982
0.513524 0.0587324 -0.421579
-0.514422 0.00465267 -0.411706
-0.0489126 -0.509448 -0.348964
0.494576 0.0294737 -0.440364
-0.458329 -0.0893147 -0.342818
-0.0764931 -0.353131 -0.450433
-0.0361521 -0.38974 0.483558
-0.105028 -0.379354 -0.455458
-0.0718993 0.43366 -0.384149
0.504019 -0.0546987 -0.350424
-0.46976 0.000875832 -0.359173
0.51631 -0.00696856 -0.321886
-0.0295543 0.549962 -0.359764
-0.524588 0.017331 -0.331922
-0.0677772 0.361224 0.524409
0.0126167 0.445677 0.498093
0.0128477 0.456416 0.33584
-0.0165861 -0.478208 0.368855
0.471284 -0.074328 0.335147
-0.520021 -0.0298121 0.378592
-0.0167729 0.376035 -0.50939
-0.0138515 -0.4944 0.349987
-0.500312 -0.0654696 0.366166
-0.01615 0.506368 0.399156
-0.0678528 0.379457 0.487891
0.0278732 0.476141 0.447087
-0.0867993 -0.532127 0.356295
0.465587 0.0100056 0.393145
-0.506401 -0.00985057 0.41017
-0.0263957 0.461267 0.452663
-0.0407771 0.381443 -0.486368
-0.0366786 0.522417 0.484158
-0.497717 -0.12439 0.387051
-0.0236342 0.443123 0.46891
-0.0447336 0.45769 -0.46476
-0.0588205 0.514596 0.430076
-0.0235606 -0.469887 0.423936
-0.450745 -0.0779545 0.479028
-0.0389314 0.40287 0.563604
0.0199312 0.475188 -0.45429
-0.0486583 0.509245 0.466766
0.0103103 -0.452296 0.34842
0.446486 -0.0227299 0.413664
-0.477859 -0.0666844 0.486636
-0.00161674 0.455761 0.470852
-0.020069 0.428494 -0.490192
-0.0212702 0.509888 0.427163
-0.0507786 -0.480553 0.402957
0.464306 0.0462022 0.461459
-0.49451 -0.0217581 0.469998
-0.0215814 0.464938 0.564771
-0.0351883 0.490164 0.448124
0.482773 -0.0284841 0.416134
-0.0326958 0.442133 0.472077
-0.0257115 0.467828 -0.487247
-0.00983744 0.463742 0.504659
-0.0313273 -0.493497 0.438214
0.499489 -0.0677144 0.502634
-0.564391 0.0013896 0.46599
-0.049599 0.4743 0.521287
-0.018756 0.516794 -0.490298
-0.041008 0.500951 0.42468
-0.104572 -0.558397 0.509321
0.453214 0.0123913 0.498297
-0.527229 -0.0263565 0.495457
-0.00546557 0.519247 0.485155
-0.0631874 0.43119 -0.484893
-0.0658258 0.52364 0.492243
-0.041403 -0.511027 0.516562
0.511937 -0.0155631 0.482696
-0.503095 -0.0414727 0.497963
-0.0251762 0.500069 0.515019
-0.0465201 0.509444 -0.477815
-0.0679921 0.491553 0.512456
-0.0102645 -0.516527 0.456647
0.505729 -0.0633464 0.490492
-0.540916 -0.00766678 0.519095
-0.0823266 -0.505444 0.483387
-0.00266288 -0.455894 -0.470664
-0.00761249 0.459974 -0.39672
-0.049224 -0.537438 -0.451976
0.503289 -0.0211601 -0.497564
-0.534622 -0.0238016 -0.485061
-0.0744091 -0.516587 0.508839
0.0141973 -0.482924 -0.477278
-0.0918761 0.510639 -0.514068
-0.0339433 -0.516376 -0.494775
0.540987 0.00629646 -0.472685
-0.460572 -0.0137925 -0.501477
-0.0116973 -0.514996 0.50111
-0.0372667 -0.473248 -0.56757
-0.0316122 0.489486 -0.489773
0.455203 -0.00745625 -0.513137
-0.452891 -0.0601988 -0.459375
-0.0364985 -0.451419 0.478155
0.0244376 -0.526479 -0.528837
-0.0763514 0.471605 -0.477115
0.521293 -0.00288923 -0.496491
-0.501768 0.0123611 -0.434566
-0.0308277 -0.439519 0.477256
-0.0504901 -0.51251 -0.556465
-0.0465006 0.507462 -0.467595
-0.0268805 -0.483765 -0.487665
0.528851 0.000494711 -0.432695
-0.572892 -0.0813388 -0.487568
-0.0504131 -0.449788 0.506881
-0.00980177 0.513865 -0.445804
-0.0588569 -0.501245 -0.470145
-0.486833 -0.0373688 -0.457691
-0.029711 -0.404928 0.446586
-0.0489008 -0.441877 -0.487218
0.0190709 -0.472822 -0.388035
-0.478915 -0.0647602 -0.43069
-0.0278834 -0.427384 0.472094
-0.0448433 -0.408502 -0.561816
-0.0104529 0.491596 -0.42804
-0.0318069 -0.48606 -0.35536
0.511095 -0.0125212 -0.400857
-0.503052 -0.0246964 -0.393304
-0.0109353 -0.420363 0.466066
-0.0389694 -0.393725 0.503198
-0.0384201 -0.474989 -0.387429
-0.488956 0.00252119 -0.43042
-0.00516716 0.431254 -0.406035
-0.480703 -0.024606 -0.382997
-0.0292355 -0.468045 -0.413512
-0.495347 -0.0676033 -0.30212
-0.0541299 -0.357504 -0.530395
-0.0152344 -0.3964 0.475454
-0.0340259 -0.326504 0.515541
0.509905 -0.0328403 -0.362641
-0.55098 -0.0364554 -0.381536
-0.530317 -0.0513634 0.298103
-0.002299 0.292161 -0.515205
0.497418 -0.0748568 0.314254
-0.014141 0.402469 -0.500519
-0.470602 -0.0736649 0.345104
0.0282872 -0.512041 0.42774
-0.00784586 0.524574 0.454806
-0.00694349 -0.439837 0.439453
-0.550999 0.00900828 0.406141
0.0200898 -0.494187 0.40354
0.468219 -0.0327338 0.377407
-0.0351556 0.413455 -0.453867
-0.0172832 0.476931 0.416712
-0.0314747 -0.534238 0.411789
0.472963 -0.0374345 0.439669
-0.500177 -0.040822 0.350315
0.00275387 0.406724 0.508181
-0.0219043 0.445883 -0.487025
-0.0648571 0.459832 0.337259
0.490113 -0.057724 0.390517
-0.550139 -0.0177743 0.447016
0.0294485 0.416357 -0.518062
-0.036317 0.517511 0.431697
-0.0407434 -0.469521 0.386554
0.506537 -0.0224225 0.508514
-0.0803818 0.5423 0.427827
-0.0387071 -0.504113 0.402878
0.509334 -0.022967 0.432908
-0.540241 0.0100426 0.433659
-0.0449913 0.471199 0.46555
-0.0166918 0.452456 -0.557154
-0.0791477 -0.500837 0.491742
0.53975 -0.0297212 0.474337
-0.532884 -0.0336027 0.469434
-0.0192436 0.484687 -0.47853
-0.0349834 -0.473205 0.484307
-0.446753 -0.0669811 0.447309
-0.0170547 0.475909 0.51866
-0.0220881 0.455194 -0.498081
0.0143496 0.509704 0.456871
0.539756 -0.0262887 0.425159
-0.450287 -0.0325938 0.4889
0.00980678 0.490399 0.464825
-0.0405897 0.443093 -0.513447
-0.00907008 0.510165 0.508898
-0.0528724 -0.515704 0.492626
-0.470558 0.0059428 0.488751
-0.0738903 0.4989 0.452267
-0.0375987 0.531506 -0.486837
-0.00455846 0.53165 0.474687
0.0116635 -0.472565 0.560575
0.466264 0.0391745 0.514511
-0.496676 -0.0341568 0.494999
0.000316915 -0.466638 0.47275
-0.0216031 -0.564284 -0.48627
-0.008301 0.513293 -0.485993
-0.0315676 -0.544814 -0.517423
0.469344 -0.0137247 -0.468675
-0.558476 0.021683 -0.467055
0.012347 -0.496912 0.527039
0.00321129 -0.487222 -0.51833
-0.0259483 0.485633 -0.472372
-0.046976 -0.543647 -0.488981
0.507017 -0.0615878 -0.563554
-0.506973 -0.0105679 -0.522834
0.0314102 -0.49932 0.466235
-0.0543582 0.481905 -0.451879
0.551072 -0.0116397 -0.452339
-0.467219 -0.0131302 -0.511721
0.0196867 -0.432275 0.550212
-0.0245296 -0.523648 -0.518464
0.00133098 0.481887 -0.45877
-0.0122025 -0.507389 -0.469397
0.520701 -0.0166592 -0.483387
-0.525663 -0.054627 -0.414319
-0.0350556 -0.498216 0.502107
-0.0294863 -0.512224 -0.469209
-0.0546019 0.479308 -0.443793
0.513817 -0.00971405 -0.45317
-0.503364 0.0340706 -0.438316
-0.0562757 -0.462149 0.47412
-0.0279787 -0.428662 -0.481553
-0.00857663 0.492631 -0.461775
0.533183 -0.0188043 -0.426095
-0.510049 -0.0546259 -0.441306
0.00895933 -0.404666 0.53141
-0.0628304 0.4585 -0.445262
-0.0156141 -0.516655 -0.432412
-0.0403326 -0.400381 0.464349
-0.00475002 0.570562 -0.421529
0.515726 -0.0358589 -0.409713
-0.484086 0.000441375 -0.343189
-0.00813206 -0.458811 -0.472506
0.0121882 0.473408 -0.421966
0.00129207 -0.48733 -0.399774
0.553375 0.00668132 -0.413247
-0.569085 0.0121076 -0.406425
0.0150067 -0.375489 0.516096
0.0147254 0.483115 -0.370715
-0.470975 -0.0265783 -0.426194
0.0613179 0.511154 -0.425075
-0.0247458 -0.546951 -0.371904
-0.491103 -0.0246241 -0.371017
-0.00899413 0.287503 -0.522695
0.521526 -0.0122376 0.380177
-0.00968926 0.342423 0.489085
-0.05199 0.35871 -0.51098
-0.0253471 0.396433 0.509564
0.0229403 0.490143 0.39885
0.00453764 0.39716 0.54183
0.0331686 0.44878 0.524873
0.0492501 -0.546237 0.430474
-0.492454 -0.0103847 0.412216
-0.0260471 0.457163 0.40802
-0.0566916 -0.514306 0.416498
-0.0459889 0.433579 0.512269
-0.062576 0.448226 -0.530492
0.0157961 -0.527944 0.383677
0.499306 -0.0836336 0.451645
-0.00533719 0.442005 0.462845
-0.0535249 -0.498535 0.418335
-0.552911 0.0121701 0.469403
-0.0276242 0.492175 0.506468
-0.0445373 0.40491 -0.438407
-0.036171 -0.521781 0.433597
0.504742 -0.0718083 0.432754
-0.497893 -0.0104247 0.420566
0.025881 0.499755 0.467065
-0.0152868 0.423948 -0.521935
-0.00102775 0.511034 0.452526
-0.0621449 -0.523674 0.507463
0.488755 -0.0362196 0.512474
-0.491495 -0.00180268 0.424336
-0.0129336 0.443 0.459862
-0.0431711 0.459997 -0.563745
-0.0615653 0.486911 0.455529
0.00482908 -0.437591 0.494584
0.539464 -0.0152675 0.467181
-0.48093 -0.00634263 0.507778
0.00680483 0.457235 0.472752
-0.00244111 0.47976 -0.466775
-0.0197839 0.530378 0.468146
0.012389 -0.507096 0.50118
-0.0125672 0.49347 0.527526
-0.0105711 0.47023 -0.530232
-0.0656818 0.472771 0.487056
-0.00658917 -0.497628 0.483345
0.515317 -0.00795132 0.534048
-0.519153 -0.00487225 0.458381
-0.0247173 0.465208 0.514269
-0.0371587 0.533563 -0.474816
-0.0534124 0.549702 0.494712
-0.00303334 -0.486366 0.540097
0.48553 -0.00223474 0.475754
-0.438179 -0.0601618 0.497154
0.0519787 -0.536873 0.474817
-0.0330801 -0.443371 -0.527581
0.00671685 0.499916 -0.53769
-0.0325451 -0.480945 -0.49885
0.47788 -0.00885196 -0.472865
-0.476979 0.0290981 -0.489352
-0.0619972 -0.530407 0.544225
-0.0259248 -0.521048 -0.419581
-0.0413984 0.544012 -0.549399
0.500898 -0.0532258 -0.532969
-0.509501 -0.00751677 -0.444541
0.0334422 -0.487761 0.487423
-0.019534 -0.47075 -0.464347
-0.0117645 0.535173 -0.473694
-0.00340587 -0.55926 -0.504204
0.50023 -0.0113197 -0.496641
-0.536995 -0.0119839 -0.465148
-0.0236686 -0.448058 0.482491
-0.00239063 -0.448372 -0.533514
0.0348349 0.506119 -0.447206
0.479012 -0.0241112 -0.487262
-0.500521 -0.0183618 -0.431969
0.0341028 -0.416272 -0.498576
0.0113914 0.507452 -0.497161
0.0254729 -0.496693 -0.462037
-0.0121633 -0.419651 0.465794
-0.0390473 0.444358 -0.426514
0.00161258 -0.546157 -0.46179
0.456878 0.0011453 -0.404981
-0.492712 -0.034193 -0.439939
-0.00902177 -0.434549 0.480992
0.00353751 -0.456911 -0.486595
0.0245056 -0.483477 -0.413876
0.485524 -0.0692536 -0.462765
-0.50911 -0.026011 -0.403852
-0.0500149 -0.448405 0.493495
-0.00562721 -0.43911 -0.493727
-0.0313897 0.493817 -0.471592
0.513004 -0.0284704 -0.461428
0.00105078 -0.388391 -0.48023
0.498378 0.0410045 -0.377627
-0.035331 -0.412216 0.491929
0.00427351 -0.391554 -0.496659
0.0588807 -0.429 -0.405658
-0.432595 -0.0365871 -0.355655
-0.0404155 -0.379204 -0.446428
-0.0333318 0.497163 -0.366707
0.0220248 -0.366287 -0.437283
-0.534668 -0.0429564 -0.397034
-0.0371667 -0.493615 -0.304621
-0.461351 -0.00565402 -0.345928
-0.00693551 -0.54926 0.324877
0.00841704 0.338998 -0.498816
-0.0685871 0.433737 0.357607
-0.523021 -0.0492739 0.329553
-0.058144 0.370768 0.494232
-0.000268173 0.369916 -0.515138
-0.00569734 -0.559525 0.406664
0.502431 -0.0127301 0.329992
-0.506009 -0.0301581 0.358129
-0.456078 -0.033758 0.397073
0.0408339 0.47962 0.404195
0.0233452 -0.510701 0.451735
0.467886 -0.00324859 0.435518
-0.506253 -0.00871687 0.410289
-0.0574538 0.46375 0.499117
0.000825469 0.486463 0.44965
0.0142726 -0.504071 0.406456
0.44032 -0.0816123 0.447041
-0.53269 -0.0113868 0.406256
-0.00821984 0.406099 0.543084
0.0121405 0.505901 0.404288
-0.0475114 -0.507642 0.477171
0.579505 -0.0827971 0.444265
-0.488106 -0.0438618 0.426514
-0.0230201 0.41676 0.47821
0.482532 0.0317425 0.444503
-0.480999 0.0136466 0.447428
-0.0299137 0.472363 -0.469462
0.500894 0.0269433 0.452625
-0.46351 -0.0313302 0.430105
0.0384234 0.423654 0.480001
0.00485376 0.4846 -0.490777
-0.0177223 0.538632 0.454461
0.0293586 -0.465906 0.452603
0.522408 -0.0771315 0.511033
-0.480601 -0.0105029 0.495762
0.00105093 0.532289 0.484187
-0.0180308 0.465298 -0.480547
-0.0148801 0.504279 0.452156
0.554837 0.0183446 0.43041
-0.471728 -0.00364703 0.490123
-0.0519041 0.462002 0.500141
0.0304971 0.467531 -0.495255
-0.0275202 0.490804 0.552219
-0.0403173 -0.531867 0.527999
0.475824 0.0122027 0.462078
-0.451859 0.0568098 0.489926
0.0109439 0.440066 0.46553
-0.00681818 0.497705 -0.516665
0.0357194 0.506735 0.451615
-0.0545837 -0.515555 0.527896
0.484547 0.0449081 0.495349
-0.482757 0.0243175 0.552791
-0.0352068 -0.510534 0.499114
-0.0663344 -0.482 -0.538621
-0.0275686 0.492062 -0.449246
-0.0168433 -0.475141 -0.532047
0.462144 0.00149882 -0.51279
-0.516063 -0.0103491 -0.534988
-0.0057619 -0.495107 0.452633
-0.0280607 -0.498369 -0.557721
-0.00590445 0.502098 -0.539472
-0.018581 -0.5402 -0.437905
0.51753 0.0191662 -0.439678
-0.00458968 -0.528954 0.513447
0.0031736 -0.442348 -0.530122
0.00874639 0.561829 -0.496583
0.00275053 -0.456013 -0.459017
0.488852 -0.0244699 -0.473802
-0.515725 0.0271425 -0.491888
-0.0113944 -0.468914 0.537329
-0.0317043 -0.476173 -0.450612
0.548895 0.0318317 -0.478763
-0.5513 0.0342417 -0.479016
-0.0217964 -0.467281 0.497739
0.011614 0.514835 -0.44052
-0.0123338 -0.511192 -0.489213
-0.521521 0.0449235 -0.403307
-0.02046 -0.41882 -0.505531
0.000715712 -0.515098 -0.480294
0.45335 0.00880613 -0.452506
-0.0313513 -0.447672 0.547306
0.0162015 -0.401207 -0.520991
0.0330749 0.53118 -0.453304
0.506656 0.0023597 -0.407076
-0.471204 0.0296442 -0.427548
-0.0106524 -0.431863 0.514227
0.0461796 -0.405914 -0.549521
0.01522 0.496625 -0.386073
0.0120058 -0.456657 -0.505555
-0.0303696 -0.398624 -0.476823
0.501426 0.0361846 -0.351898
-0.01708 -0.38474 -0.530442
0.0101678 0.51127 -0.398199
0.0134902 -0.51587 -0.351575
-0.502502 -0.0278772 -0.406183
-0.010962 -0.386975 -0.477022
-0.0592947 -0.457477 -0.409643
0.517058 -0.0140699 -0.449149
-0.0423106 -0.385489 -0.538174
-0.0150797 0.491351 -0.35835
-0.496853 0.0309618 -0.373332
0.00254292 0.557986 0.363691
0.0140871 -0.471693 0.369487
-0.0651872 0.423067 0.518937
-0.514188 0.0301289 0.407033
-0.00649963 0.380334 0.507075
-0.0109732 0.386961 -0.494327
-0.00654918 0.429287 0.375876
-0.0109673 -0.522537 0.370767
0.517143 0.0328169 0.40558
-0.496156 -0.0170946 0.452749
0.0125368 0.400451 0.493103
-0.0404261 0.460717 -0.452851
-0.492311 -0.00993932 0.395518
0.00578819 0.407951 0.510943
-0.0166907 0.51381 0.380117
0.0401731 -0.492052 0.424635
-0.565638 0.00403731 0.454916
-0.0415387 0.385341 0.491591
0.00247729 0.445724 -0.478118
-0.00369702 0.487667 0.425672
-0.536521 0.0354335 0.471498
-0.0111858 0.433732 -0.49627
0.0297232 -0.52274 0.441229
0.468823 0.0525553 0.417679
-0.454757 -0.00572288 0.52322
-0.0660466 0.418449 0.481685
0.015 0.436042 -0.489348
0.471703 -0.0145359 0.49133
-0.54507 0.0429304 0.461674
-0.00314408 0.441063 0.508134
0.0075286 0.501365 -0.506921
-0.0044251 0.552646 0.505124
0.042071 -0.516376 0.425407
0.494707 0.0893205 0.493706
-0.517063 -0.0125095 0.481562
-0.0280135 0.464689 0.459127
-0.00104223 0.488264 -0.496888
0.0208667 0.525194 0.453409
0.00176905 -0.537245 0.46621
-0.478747 -0.0418142 0.455673
0.0385317 0.480266 0.514885
-0.00966473 0.525549 -0.524676
-0.0450804 0.476784 0.490554
0.0120616 -0.517206 0.44557
0.458248 -0.0240471 0.500923
-0.486609 -0.00233674 0.493256
0.0231411 0.450266 -0.546483
-0.0099389 0.497212 0.447939
0.003298 -0.480913 0.484426
0.49305 -0.0186464 0.528765
-0.514812 0.0458051 0.486072
0.0459131 0.518663 0.4692
0.0570252 0.508784 -0.510373
-0.0301023 0.522735 0.494364
-0.0542185 -0.523201 0.502091
0.54208 -0.00777793 0.531893
-0.541747 -0.07205 0.516108
0.0340416 -0.487636 0.485296
0.0408749 -0.496454 -0.469097
0.0536421 0.542465 -0.469229
-0.0209298 -0.534683 -0.529924
0.495482 0.0281102 -0.486383
-0.492735 -0.0343879 -0.539608
0.0337355 -0.507497 0.492828
0.0325778 -0.513403 -0.507064
0.0586375 0.490602 -0.480605
-0.00284862 -0.490193 -0.497656
0.494266 -0.0343097 -0.491299
-0.476313 -0.0106605 -0.521393
0.012488 -0.49611 0.545255
0.0401432 -0.506834 -0.506252
-0.0190936 0.554783 -0.477351
0.00761627 -0.526462 -0.472202
0.0681977 -0.496167 0.537466
0.0157389 -0.449547 -0.488131
0.00361109 0.51638 -0.440447
0.0386844 -0.484541 -0.448659
0.522022 0.072315 -0.529116
-0.507836 0.0210185 -0.461126
0.0286273 -0.456849 0.544725
0.044631 -0.50113 -0.454954
0.478365 0.00517748 -0.458282
-0.515264 0.0606484 -0.472034
0.00730959 -0.480104 -0.467035
-0.0112859 -0.504446 -0.447666
0.445231 -0.0182099 -0.416157
-0.4997 0.00390262 -0.440947
0.00531548 -0.420761 -0.500129
0.0521553 -0.506011 -0.461181
0.544289 0.0193881 -0.431203
0.0118093 0.474871 -0.48629
-0.0338832 -0.440204 -0.376645
0.488141 0.065656 -0.39004
-0.51605 0.0487272 -0.399881
0.0112062 -0.417042 0.487642
0.0771096 -0.511801 -0.410186
-0.0429549 -0.423633 -0.481085
0.0588307 0.488097 -0.382961
0.0352107 -0.392072 0.453783
-0.0250388 -0.408773 -0.550272
-0.0186077 0.464526 -0.394697
0.0326254 -0.504038 -0.373163
0.0242428 -0.403295 0.491451
0.0110519 -0.44838 -0.418316
0.463164 0.0143011 -0.387525
-0.00765588 0.457363 -0.336842
0.00224455 -0.381289 0.444814
0.51506 0.036467 -0.381725
-0.562877 0.0471369 -0.374
0.501342 0.00542349 -0.385771
0.0667669 0.528124 0.302203
-0.507036 -0.00388336 0.309735
-0.000912612 -0.467534 0.365195
-0.0501798 0.380364 0.513314
0.529404 0.0520546 0.400637
-0.0169965 -0.494074 0.34026
-0.0085533 0.428686 0.513173
-0.0704883 0.526808 0.41666
0.481656 0.00846551 0.367288
0.0611462 0.369163 0.441725
0.013556 0.47986 0.418723
0.00278179 -0.496423 0.396995
0.51414 -0.0555951 0.353983
-0.539556 0.0156078 0.420944
0.00780748 0.409583 0.497562
0.000372993 0.424986 0.532799
-0.0111493 0.428421 -0.537762
0.499745 0.0158037 0.424911
-0.49379 0.00191757 0.400432
0.011519 0.432156 0.498744
0.0831819 0.413161 -0.541926
0.0571774 0.441011 0.440654
0.530461 0.072342 0.43394
-0.031748 0.424265 0.525977
0.0179225 0.414076 -0.486441
0.0626478 0.493097 0.429944
0.431182 -0.0276905 0.431525
-0.480075 0.00287971 0.410976
-0.0322008 0.418987 0.4959
0.0438254 0.424583 -0.481846
0.0509924 -0.47368 0.407574
0.485806 0.0266101 0.416631
-0.507446 -0.014653 0.454305
0.0416568 0.485875 -0.514155
-0.0127733 0.515474 0.49041
0.0125226 -0.521516 0.430145
-0.466304 0.0325781 0.481142
0.0330196 0.450976 0.548578
0.0146147 0.474958 0.480594
0.0512907 -0.523136 0.421818
0.473264 -0.0358389 0.464996
0.0337663 0.487096 0.506189
-0.00146393 0.490694 -0.518357
-0.00314406 0.506511 0.484773
-0.00734178 -0.48503 0.453072
-0.503764 0.00919993 0.441223
0.0601792 0.525826 0.453495
-0.0174367 0.557837 -0.509591
0.00171818 -0.529814 0.499338
0.521445 0.0168226 0.497659
-0.493304 0.0235333 0.477073
0.0130802 0.525542 0.52929
0.0699721 0.539521 -0.454601
0.0458207 0.486723 0.48855
0.0148756 -0.535723 0.494493
0.480523 0.00556302 0.527064
-0.499174 0.0222631 0.504375
0.032564 -0.498301 0.449559
0.0516127 -0.504823 -0.487065
0.0517187 0.490705 -0.521605
0.067107 -0.462341 -0.520109
0.459559 0.0222529 -0.517335
-0.524343 0.0183951 -0.487031
0.0498459 -0.468718 0.489485
0.0140291 -0.503736 -0.514134
0.0689288 0.503659 -0.456595
0.536399 0.0094501 -0.544801
-0.485879 0.0660704 -0.498375
-0.0426079 -0.435993 -0.504961
0.0278924 0.517023 -0.451479
0.497989 0.0555504 -0.515474
-0.483875 0.0488818 -0.482562
0.0611605 -0.478185 0.541934
-0.00610651 -0.485808 -0.487059
0.0291738 0.476499 -0.478131
0.0265403 -0.529371 -0.483264
0.515762 0.0251447 -0.442696
-0.538289 -0.0047546 -0.45236
0.0327589 -0.450429 0.497057
0.0209212 -0.489333 -0.553344
0.0228728 0.530571 -0.455405
0.481003 -0.00957923 -0.439205
-0.0275153 -0.43135 0.520131
0.0106463 -0.455516 -0.493856
0.0576557 0.52064 -0.437564
0.543961 0.0255864 -0.410532
-0.538258 0.0542488 -0.487753
0.0235807 -0.411501 -0.522144
0.0565708 -0.545845 -0.476308
0.502352 0.0115246 -0.39286
-0.518081 -0.00600757 -0.41239
0.0296298 -0.459812 0.494292
-0.015058 -0.386105 -0.479145
0.0150315 0.51797 -0.415454
0.0286765 -0.409875 -0.494884
0.0154735 -0.477679 -0.35634
0.522111 0.0145873 -0.377286
-0.468019 0.0510021 -0.431718
0.0063371 -0.54085 -0.423982
0.0311976 -0.330739 -0.513935
0.0204475 -0.382938 0.502211
-0.00700133 -0.400703 -0.51702
0.0546116 -0.526604 -0.338729
0.0013704 0.510341 -0.430286
0.0527143 -0.465077 -0.34089
-0.4682 0.0285173 -0.398237
-0.0369279 -0.418524 0.490595
0.037731 -0.532995 -0.429434
-0.542152 0.0342651 -0.37128
0.0356598 0.489011 -0.365296
0.0206997 -0.330534 0.5372
0.003057 -0.465487 0.399606
0.0189756 0.397038 0.48833
0.0389156 0.490307 0.349693
0.443964 0.0300916 0.376389
-0.532303 0.0181288 0.397506
0.003527 0.380515 0.487477
-0.540885 0.0254511 0.413789
0.470752 0.0273289 0.431865
0.022673 0.447116 0.481714
0.0344069 0.485333 0.394558
0.494909 0.0313557 0.396678
0.0332188 0.461791 -0.490575
-0.00907027 0.465171 0.427861
-0.476597 0.0763967 0.382331
0.0290746 -0.469446 0.440813
0.531717 0.0457098 0.406245
0.037954 0.416544 -0.479845
0.0470035 -0.542658 0.419002
-0.49312 0.104874 0.433546
0.0309472 0.474497 0.4808
0.0277357 0.456217 0.431971
0.0308009 -0.498471 0.415541
0.496114 0.063995 0.483133
-0.490218 0.03502 0.433339
0.106321 0.461775 -0.539474
0.05042 0.500541 0.45829
0.0715267 -0.529877 0.444813
0.451334 0.0283241 0.48065
-0.519385 9.91094e-05 0.513529
0.0489293 0.505895 0.465973
0.0728316 0.494699 -0.478529
-0.0351685 0.48521 0.394677
0.441628 0.0190339 0.452411
-0.494374 0.111393 0.462155
0.0553748 0.48085 0.434235
0.0713347 0.447287 -0.489741
0.0246082 0.506079 0.415937
-0.00450325 -0.520194 0.546399
0.497285 0.00624572 0.503141
-0.485097 -0.0180506 0.470632
0.0285365 0.433167 0.457361
0.0509411 0.471949 -0.495063
-0.00841956 0.461313 0.455087
0.0124677 -0.502952 0.444013
0.495693 0.0487486 0.457685
-0.520576 0.0301033 0.505412
0.0644776 0.521359 0.49269
0.0541238 0.499498 -0.533887
-0.0154843 0.483577 0.510838
0.0616443 -0.495408 0.524965
0.485927 0.0438027 0.515086
-0.474369 0.01255 0.505493
0.0254978 -0.538852 0.496485
0.0384095 -0.503685 -0.488115
0.0433451 0.522473 -0.524076
0.0429307 -0.51492 -0.503438
0.533476 0.0706519 -0.498023
-0.474397 0.055052 -0.490115
0.0212115 -0.507049 0.491439
-0.00201122 -0.494792 -0.538205
0.00518721 0.474097 -0.527325
0.0307344 -0.490744 -0.490825
0.469859 0.0148718 -0.533994
-0.547461 0.0197513 -0.460384
-0.0118463 -0.506657 -0.526425
0.0232476 0.548694 -0.47166
0.00577392 -0.51741 -0.472352
0.56006 0.107206 -0.553007
-0.47763 0.0512134 -0.45298
0.0897349 -0.497351 0.516346
0.0351698 -0.468983 -0.491859
-0.0028533 0.487667 -0.469014
0.0744256 -0.527166 -0.413822
0.504347 0.0242514 -0.454619
-0.465046 -0.0179546 -0.480284
0.00711307 -0.475857 0.49508
0.0439737 -0.419575 -0.508773
0.507202 0.0482384 -0.451075
-0.474029 0.00408946 -0.456008
0.0781022 -0.499645 0.493223
0.0499814 -0.417528 -0.484538
0.0118877 0.527428 -0.453852
0.0570212 -0.51632 -0.463472
0.482843 0.0973014 -0.433274
0.0554334 -0.486556 0.502276
0.0186541 -0.470116 -0.533825
0.0577515 0.412701 -0.439756
0.492971 0.0412703 -0.418891
-0.51009 0.0718317 -0.435111
0.0419019 0.528954 -0.48313
0.552991 0.0520808 -0.420498
-0.470831 0.0410168 -0.488539
-0.0220032 0.500339 -0.421244
0.0476079 -0.487925 -0.43894
0.528455 0.0255919 -0.41926
-0.508028 0.0136786 -0.409199
0.00184762 -0.423553 0.492196
0.00068963 -0.515611 -0.457212
0.0662485 -0.362495 0.548392
0.486613 0.0345897 -0.373163
-0.498269 0.0985921 -0.435929
0.0250162 -0.436597 -0.53009
0.073826 -0.536275 -0.389496
-0.483001 0.0935123 -0.45721
0.0113076 -0.383782 0.510227
0.0343811 0.524726 -0.360226
0.564079 0.0376218 -0.346588
0.53189 0.052131 -0.32643
0.0768505 -0.355557 0.536395
0.0180218 -0.435576 -0.361918
0.091971 -0.366283 -0.502643
0.0311567 -0.480491 0.355828
-0.492326 0.0855563 0.405412
0.0333816 -0.479694 0.37039
0.101868 0.369909 0.461213
0.0558889 0.478002 0.354827
0.0463795 0.431176 0.475179
0.49801 0.0858478 0.387583
0.0194487 0.418561 -0.565095
0.539367 0.0561201 0.369622
-0.518099 0.0598736 0.374669
0.0347919 0.558676 0.39659
0.0983319 -0.455302 0.38067
0.468497 -0.00820367 0.361125
-0.458217 0.0214489 0.374247
0.00938314 0.46571 -0.519571
0.0401925 -0.503907 0.401802
0.0147476 0.422205 0.509836
0.0233847 0.521799 0.397056
0.503336 0.0459833 0.474975
-0.00138311 0.453678 0.460986
-0.00199668 0.408321 -0.501692
0.0796787 -0.530706 0.458916
0.530036 0.0580833 0.4303
-0.520437 0.0524159 0.43789
0.0233933 0.5038 -0.477507
0.0650511 -0.491245 0.49385
0.47509 0.0553356 0.486272
-0.435388 0.0328119 0.458556
0.028251 0.415395 0.492466
0.0339549 0.480741 -0.479918
0.0127856 0.535751 0.48163
0.0151783 -0.539077 0.428988
0.49138 0.0366559 0.466515
-0.5224 0.0682134 0.45683
0.0295023 0.430529 0.511177
0.0517676 0.458798 -0.516056
0.029193 0.506103 0.417356
0.0249099 -0.479213 0.516484
0.554903 0.132247 0.386564
-0.478844 0.0641894 0.456463
0.0261983 0.564124 0.53266
0.0220098 0.481475 -0.461604
0.0862972 0.5175 0.442399
-0.0166066 -0.505101 0.500141
0.44996 0.00918576 0.477694
-0.532242 0.0578479 0.435032
0.0687678 0.463995 0.481191
0.034495 0.427915 -0.491652
0.0657658 0.488113 0.48571
0.0582433 -0.531845 0.525796
0.48602 -0.00397938 0.441095
-0.490768 0.0291936 0.464517
-0.0194277 0.534097 0.490288
0.036119 0.474728 -0.507037
0.0107648 0.542896 0.482808
0.0261535 -0.523037 0.506096
0.501714 0.00145608 0.516746
-0.511644 0.0430347 0.428725
0.012133 -0.553984 0.489754
0.0390256 -0.427511 -0.475287
0.0193211 0.456038 -0.491147
0.021943 -0.492349 -0.476513
0.489302 -0.00295058 -0.481462
-0.454201 0.0222162 -0.482502
0.00904797 -0.495534 0.483242
0.0453792 -0.456635 -0.510713
0.0462983 0.501122 -0.465794
0.0367806 -0.470051 -0.479614
0.514462 0.0209927 -0.495616
-0.488734 0.0672214 -0.476849
0.0314531 -0.505481 0.514716
0.118738 -0.506685 -0.499199
0.00700146 0.426675 -0.494462
0.0693955 -0.540922 -0.529307
0.558398 0.0256398 -0.46458
-0.448487 0.0577598 -0.477609
-0.00589503 -0.451152 0.462288
0.0570339 0.517787 -0.486656
0.073139 -0.489063 -0.401531
0.500805 0.0593031 -0.447798
0.0242067 -0.433797 0.467079
0.0415926 -0.42439 -0.508903
0.0571856 0.522688 -0.470135
0.0592444 -0.468846 -0.464511
0.5005 0.0979294 -0.457403
0.0478669 -0.41771 0.488638
0.0434122 -0.469324 -0.520991
0.0133424 0.534949 -0.387909
0.0705253 -0.454418 -0.404466
0.474312 0.0386082 -0.478755
0.0374637 -0.431881 0.524491
0.0543061 -0.432113 -0.542644
0.104722 0.463998 -0.451223
0.508119 0.0371889 -0.422535
-0.54003 0.0722172 -0.463193
0.0377049 -0.418015 -0.526051
0.0529393 -0.552783 -0.452258
0.522244 0.0485605 -0.438245
-0.542217 0.0783325 -0.413444
0.0739083 -0.405049 0.500516
0.0241723 0.510682 -0.45671
0.0459153 0.511955 -0.387679
-0.494619 0.10558 -0.444161
0.0526862 -0.355019 -0.541125
0.0531559 0.472404 -0.391131
0.0181887 -0.496017 -0.378232
0.047523 -0.341834 0.542955
0.0511377 -0.416234 -0.453588
0.0226197 0.496688 -0.380298
0.465526 0.0104111 -0.371191
-0.482817 0.0139001 -0.41641
0.0199334 0.556948 -0.43048
0.0277382 -0.373538 0.484477
-0.00416933 -0.33325 -0.502785
0.508999 0.0623908 -0.372781
-0.47635 0.0759247 -0.365092
0.0342066 0.54484 0.357907
-0.519082 0.07472 0.321311
-0.466838 0.0609841 0.340813
0.0583427 0.384136 -0.460546
0.494372 0.0844875 0.366636
0.0304547 0.470164 0.381879
0.0422509 -0.509409 0.389293
-0.515999 0.0366687 0.393159
0.0862728 0.348075 0.527922
0.0435267 0.399758 -0.495903
0.0556938 0.531627 0.420796
0.475437 0.0622888 0.408601
0.0598864 0.364055 0.510893
0.0746911 0.370064 -0.552828
0.0542919 0.541454 0.398592
-0.510086 0.0789089 0.377293
0.0922593 0.442169 -0.502663
0.0179231 -0.501521 0.438041
0.544222 0.00803033 0.421132
-0.513213 0.037372 0.465358
-0.0177058 0.496834 0.532181
0.0483501 0.431116 -0.527537
0.521272 0.0340978 0.46292
-0.496199 0.0305372 0.390147
0.0179531 0.480204 0.5092
0.103165 0.486109 -0.518201
0.068384 0.463415 0.407331
0.0347343 -0.501972 0.430893
0.479634 0.0431509 0.469037
-0.484003 0.0187914 0.41946
0.0315051 0.457137 0.492291
0.080866 0.47553 -0.518978
0.112519 0.513776 0.51426
0.0463192 -0.494787 0.473644
0.520241 0.0791888 0.46978
-0.488465 0.0354348 0.468549
0.0462537 0.492158 0.544877
0.0605134 0.497643 0.464205
-0.025167 -0.53894 0.47402
-0.494314 0.0117914 0.502211
0.0361752 0.473829 0.525993
0.0194445 0.451357 0.471888
0.0323866 -0.502082 0.474209
0.51673 0.0478511 0.46219
-0.481575 0.0711927 0.490493
0.0855892 0.492963 0.495468
-0.0226926 0.462415 -0.509682
0.054725 0.462902 0.463402
0.0242445 -0.511458 0.461877
0.516072 0.0601894 0.530737
-0.457996 0.0831406 0.549109
0.0544697 0.486592 0.513822
0.00394755 0.485382 -0.524575
0.0525469 0.449367 0.561
0.0634391 -0.509305 0.518943
0.50829 0.0234752 0.559859
-0.500584 0.0274606 0.471108
0.0350577 -0.471361 0.50639
0.0760218 -0.512554 -0.456012
0.030476 0.509619 -0.467728
0.0501081 -0.472509 -0.462223
0.509116 0.0609159 -0.531256
-0.511055 0.0384071 -0.512017
0.0189409 -0.506295 0.523138
0.0645994 -0.494601 -0.546013
0.0341345 0.555875 -0.501373
0.0744767 -0.531321 -0.49804
0.548753 0.0619002 -0.458541
-0.491749 0.04488 -0.516741
0.0720591 -0.498225 0.52479
0.0775998 -0.490863 -0.468675
0.46563 -0.00414498 -0.508017
-0.52703 0.0971155 -0.525633
0.0535118 -0.422747 -0.479036
0.114132 0.5124 -0.517093
0.0378677 -0.515753 -0.478339
0.489604 0.0234448 -0.457939
0.063366 -0.480899 0.476268
0.0384143 -0.459787 -0.488039
0.0574103 0.541422 -0.440124
0.0427716 -0.486999 -0.450131
0.528712 0.0848225 -0.421556
-0.48218 0.063895 -0.463635
0.064642 -0.453431 0.49501
0.0371464 0.510158 -0.461434
0.0284364 -0.500605 -0.431139
0.540044 0.0124646 -0.437628
-0.486781 0.0556157 -0.46655
0.0685608 -0.434383 0.546276
0.0933307 -0.399174 -0.483196
0.0774602 0.488309 -0.45277
0.490433 0.073229 -0.468565
-0.47509 0.0596791 -0.405084
0.0732789 -0.434722 0.467619
0.0325261 -0.392743 -0.559736
0.496041 0.0245452 -0.400363
-0.512267 0.0929079 -0.424975
-0.0106372 -0.39466 0.501157
0.0337923 0.548856 -0.440719
-0.517985 0.0630111 -0.387521
0.126433 0.492692 -0.429011
0.496285 0.106867 -0.421672
-0.514707 0.0275565 -0.465649
0.0677026 -0.458345 0.475591
0.11962 -0.393006 -0.487928
0.0770502 0.536319 -0.415158
0.0970337 -0.543291 -0.414305
0.454619 0.0373168 -0.403144
-0.499763 0.0355772 -0.387593
0.0133994 0.556145 -0.395203
0.0163564 -0.394485 0.456536
0.0957341 0.488694 -0.341176
0.0335478 0.553082 -0.391668
-0.512044 0.0359141 -0.368172
0.023744 0.498555 -0.33098
0.0456673 -0.493703 -0.328386
-0.00777529 -0.315781 -0.496992
0.0518186 0.516369 -0.296966
0.121989 -0.301282 0.537353
0.0377617 0.313299 0.506726
0.0864531 0.359097 -0.480887
0.0307006 0.489055 0.334112
0.038027 0.38248 0.515036
-0.0351146 0.396338 -0.533066
0.10115 0.516971 0.407238
0.0298193 -0.480973 0.368376
0.0673811 0.463563 0.363819
0.0708812 -0.422281 0.357056
-0.526543 0.0774299 0.402178
0.0809585 0.376587 0.445647
0.0419822 0.560438 0.409619
0.480633 0.0239917 0.449649
0.0905635 0.433091 0.51602
0.128326 -0.514175 0.431451
0.51452 0.0168827 0.464122
-0.508324 0.0775653 0.385247
0.0653313 0.426864 0.496156
0.0211752 0.447819 -0.561839
0.530404 0.0237862 0.442415
0.10559 0.408958 -0.542945
0.0430651 0.475224 0.452109
0.0741886 -0.490024 0.43699
0.484394 0.0464367 0.471212
-0.46736 0.0651515 0.425344
0.041572 0.520573 0.492684
0.0625988 -0.537793 0.407276
0.477918 0.0836329 0.412539
0.0752434 0.481092 0.39829
0.0761306 0.439851 -0.466931
0.04686 0.532958 0.404647
0.0550193 -0.549031 0.401816
0.481256 0.0276981 0.473189
-0.533928 0.0317623 0.446819
0.0740475 0.455241 0.459506
0.0445998 0.490494 0.494471
0.0465716 -0.53231 0.459465
0.491125 0.029165 0.462088
-0.494905 0.0133005 0.452442
0.0347241 0.510625 0.538609
0.0548845 0.485065 -0.50237
0.040021 0.517142 0.476245
0.0677542 -0.527837 0.459805
0.544931 0.0652886 0.509709
-0.541394 0.106267 0.441294
0.00775372 0.487122 -0.468752
0.0651609 0.491878 0.533801
0.0904826 -0.483822 0.484113
0.56365 0.0560529 0.50129
-0.455385 0.103457 0.478546
0.0827384 0.519775 0.484428
0.00762076 0.501843 -0.477241
0.0081462 0.50651 0.498166
0.0652724 -0.454382 0.458791
0.417064 0.0267724 0.523088
-0.512483 0.00533526 0.542375
0.0750296 -0.446674 0.47251
0.080245 -0.456962 -0.486515
0.0689335 0.48926 -0.518774
0.0875109 -0.521276 -0.503318
0.46282 0.0698669 -0.486426
-0.472143 0.0926135 -0.470858
0.0142111 -0.5052 0.471082
0.0612806 -0.501556 -0.522667
0.0572061 0.501329 -0.505375
0.0436935 -0.547866 -0.50023
0.469066 0.129997 -0.448246
-0.55116 0.0813826 -0.46026
0.0630585 -0.51966 0.491182
0.109574 -0.450326 -0.553866
