ply
format ascii 1.0
comment sampling resolution: 0.01
comment noise level: 0.02
comment Created by Open3D
element vertex 1727
property double x
property double y
property double z
end_header
0.0963525 -0.486891 -0.497783
0.108526 -0.481209 -0.494584
-0.508435 0.129615 -0.521087
0.10683 -0.452727 -0.514893
0.483656 0.136672 -0.489161
0.107112 0.460592 0.479326
0.127897 0.479317 -0.502375
0.134148 -0.496158 0.466941
0.530666 0.133106 0.494209
0.138574 0.502268 0.51999
0.147014 0.480396 -0.489
0.128937 0.498562 0.499406
0.0937092 -0.51332 0.508698
0.516834 0.118642 0.516144
-0.489761 0.117136 0.519601
0.155515 -0.512711 0.491185
0.12245 -0.467392 -0.480347
0.150067 0.472737 -0.460194
0.142681 -0.474643 -0.488306
0.551831 0.145372 -0.488289
-0.508025 0.129391 -0.449234
0.11983 -0.523872 0.516041
0.0989297 -0.46208 -0.494562
0.0835061 0.476836 -0.469859
0.472451 0.12462 -0.485543
-0.471198 0.124177 -0.521225
0.0962226 0.466039 0.507502
0.172716 0.465841 -0.531277
0.0931927 0.523977 0.471117
0.148316 -0.509432 0.514701
0.473788 0.13097 0.505341
0.113259 0.511599 0.491198
0.120481 0.497776 -0.491094
0.112262 0.482619 0.509324
0.112968 -0.502303 0.458136
0.450387 0.107276 0.51557
-0.490085 0.157312 0.533299
0.123149 -0.486889 0.491981
0.151613 -0.525339 -0.493265
0.133451 0.519332 -0.489571
0.122602 -0.48879 -0.508836
0.502043 0.130023 -0.509403
-0.49059 0.142291 -0.502346
0.141499 -0.478435 0.536552
0.135686 -0.524192 -0.492365
0.11035 0.491977 -0.502281
0.152823 -0.526903 -0.487255
0.502418 0.128642 -0.493201
0.103469 -0.485225 0.52778
0.146572 -0.516997 -0.448312
0.522791 0.162098 0.49578
0.0930177 0.511856 0.529157
0.152596 0.502402 -0.501579
0.133958 0.514924 0.523161
0.149053 -0.511574 0.461836
0.50932 0.153753 0.47859
0.135019 0.502902 0.534812
0.129382 0.48832 -0.509995
0.135562 0.497409 0.531844
0.113385 -0.449737 0.496678
0.514015 0.150761 0.51628
-0.468025 0.183902 0.482345
0.12936 -0.493746 0.483352
0.177232 -0.508392 -0.502056
0.146635 0.50438 -0.513171
0.155518 -0.520151 -0.481817
0.4817 0.179725 -0.500474
-0.494125 0.139594 -0.502829
0.150529 -0.473648 0.486314
0.117281 -0.506276 -0.51806
0.12189 0.510573 -0.515005
0.176146 -0.435586 -0.51068
0.471624 0.142863 -0.539516
0.475603 0.166659 0.474486
0.140915 0.50027 0.514565
0.166973 0.481556 -0.467491
0.15618 0.463258 0.474205
0.117491 -0.513284 0.485322
-0.526235 0.123543 0.475912
0.150349 0.492232 0.499571
0.129718 0.490806 -0.485788
0.130947 0.534794 0.466824
0.146512 -0.466841 0.484068
0.516635 0.12618 0.494434
-0.501414 0.134796 0.494188
0.174428 -0.517716 0.491098
0.17026 -0.475747 -0.516361
0.133408 0.505067 -0.512029
0.137692 -0.520869 -0.480853
0.492735 0.161939 -0.538909
-0.480766 0.144227 -0.495011
0.5115 0.161406 -0.496761
-0.50497 0.128167 -0.477667
-0.495307 0.155838 -0.49971
0.170635 0.502539 -0.476953
0.167213 -0.474798 0.457891
0.138174 0.483619 0.512893
0.149734 0.537286 -0.487946
0.18271 0.482283 0.49907
-0.502392 0.165609 0.513666
0.188348 0.523741 0.486715
0.133361 0.498275 -0.499637
0.138393 0.526008 0.517886
0.151148 -0.452863 0.505823
0.4977 0.192464 0.511614
-0.492767 0.182521 0.527695
0.177501 -0.535991 0.507371
0.159488 -0.529138 -0.512203
0.173755 0.533857 -0.505373
0.17389 -0.485501 -0.503198
0.517162 0.162662 -0.528265
-0.469327 0.162795 -0.51855
0.183326 -0.49907 0.467336
0.152912 0.448029 -0.500105
0.526767 0.166539 -0.474331
0.171882 0.494971 -0.504238
0.185677 -0.472555 -0.453935
-0.488413 0.095893 -0.466397
0.140769 0.493333 0.473927
0.11544 0.487974 0.514261
0.150528 0.510115 -0.500492
0.168689 0.509012 0.531605
0.136723 -0.489419 0.484456
-0.472545 0.156782 0.478125
0.146767 0.450127 0.522048
0.153127 0.484267 -0.468214
0.157701 0.508999 0.51686
0.181752 -0.537434 0.489499
0.488137 0.203845 0.466224
-0.500525 0.181833 0.488788
0.177592 -0.499298 0.469418
0.196508 -0.495218 -0.479621
0.14436 0.492876 -0.512647
0.171783 -0.512617 -0.512296
0.510022 0.173921 -0.54373
-0.470751 0.172403 -0.479565
0.154339 -0.531823 0.501432
0.166914 -0.510456 -0.505217
0.192963 0.498948 -0.496605
0.169763 -0.509533 -0.447553
0.533281 0.199681 -0.498116
0.154399 -0.490798 0.500376
0.172348 -0.51306 -0.49962
0.188787 -0.532895 -0.484244
0.164369 0.44373 0.534162
0.19775 0.466074 -0.475959
0.180143 0.502006 0.483441
0.169721 -0.489907 0.510746
0.153156 0.458967 0.467929
0.198103 0.513018 -0.520471
0.168525 0.483255 0.468995
0.484546 0.155637 0.481409
-0.49558 0.208311 0.492818
0.19185 0.491999 0.48208
0.176131 0.509066 -0.516027
0.210448 0.509873 0.489374
0.168485 -0.476015 0.494765
0.44953 0.188151 0.505542
-0.531154 0.155421 0.509685
0.193625 -0.501454 0.478324
0.217007 -0.519295 -0.536858
0.199232 0.498013 -0.495432
0.201427 -0.464782 -0.508915
0.50481 0.166695 -0.500456
-0.548402 0.158441 -0.542241
0.175089 -0.473314 0.503107
0.161841 -0.489684 -0.493115
0.210237 0.514356 -0.491068
-0.505111 0.171956 -0.46506
0.222264 -0.505884 0.517706
0.209568 0.55044 -0.510242
0.479278 0.190346 -0.479576
0.506042 0.175802 0.482297
-0.526243 0.189362 0.509966
0.180589 0.454692 0.524531
0.162045 0.484034 -0.527827
0.162459 -0.531593 0.507435
0.1547 0.481695 0.493434
0.206276 0.540004 -0.458181
0.156118 0.508234 0.485929
0.213204 -0.493453 0.507471
0.492943 0.195777 0.477624
-0.486123 0.175733 0.449975
0.226394 -0.47565 0.527671
0.179102 -0.509111 -0.485305
0.21338 0.473874 -0.465485
0.208501 -0.487776 -0.46911
0.495955 0.20545 -0.484978
-0.489329 0.177543 -0.484789
0.189707 -0.489291 0.509755
0.175102 -0.479987 -0.479588
0.232303 0.489253 -0.456266
0.223181 -0.485115 -0.475954
0.506312 0.179725 -0.515415
-0.51219 0.20268 -0.493767
0.190764 0.457658 -0.509587
0.18742 -0.497945 -0.50289
-0.481796 0.204102 -0.475545
0.24606 0.455927 0.499659
0.234302 -0.507959 0.446114
-0.486625 0.194887 0.45618
0.194341 0.499883 0.492582
0.212996 0.512373 0.443249
0.171494 -0.494672 0.513332
0.477437 0.169918 0.467773
-0.506092 0.193518 0.505746
0.211713 0.487909 0.464953
0.19351 0.488073 -0.52692
0.202828 0.498727 0.520229
0.199217 -0.50474 0.522338
0.497713 0.222217 0.525151
-0.50129 0.204325 0.50582
0.232304 -0.501184 0.490463
0.18863 -0.494541 -0.49636
0.207864 0.503889 -0.488988
0.167834 -0.521114 -0.478891
0.487996 0.189935 -0.491711
-0.467924 0.210654 -0.516214
0.197689 -0.519238 0.511738
-0.481159 0.203834 -0.495129
0.21071 -0.469767 0.491702
0.195711 -0.441155 -0.476881
0.506216 0.204373 -0.48041
-0.453613 0.218077 -0.491367
0.20982 0.49841 -0.487137
0.222834 0.505603 0.434253
0.193548 0.484672 -0.512674
-0.505939 0.229916 0.452707
0.156422 0.485447 0.485483
0.225333 0.467703 -0.487346
0.20891 0.520343 0.487411
0.205643 -0.475957 0.490469
-0.533643 0.185849 0.491954
0.232837 0.507596 0.492903
0.204164 0.546762 -0.522424
0.194626 0.524381 0.505578
0.201948 -0.478598 0.55186
0.511448 0.184231 0.490181
-0.505115 0.237789 0.516946
0.21978 -0.511877 0.507536
0.23101 -0.540255 -0.453311
0.192634 0.507476 -0.504593
0.253904 -0.49709 -0.465517
0.490567 0.229046 -0.479596
-0.48632 0.205887 -0.507735
0.240274 -0.481886 -0.528899
0.204115 0.511023 -0.447809
0.236003 -0.514026 -0.489796
0.226286 -0.518093 -0.448666
0.486993 0.236488 -0.452212
-0.507631 0.208123 -0.471879
0.214605 -0.52145 -0.439609
-0.485765 0.219373 -0.474301
0.245131 0.452046 0.526846
0.521028 0.216497 0.432715
0.211922 0.47221 0.453544
0.217625 -0.530368 0.484237
0.225839 0.509817 0.513432
0.267021 0.518131 -0.498441
0.211178 -0.514601 0.503233
0.496938 0.224032 0.494996
-0.492655 0.200125 0.51302
0.237109 0.554322 0.468434
0.22407 0.48702 -0.503101
0.184426 0.493546 0.497911
0.22392 -0.51345 0.545793
0.483734 0.252807 0.493865
-0.520238 0.234077 0.539606
0.233932 -0.505764 0.50865
0.184759 -0.479967 -0.505977
0.224178 0.501431 -0.502775
0.228029 -0.488577 -0.502195
0.489454 0.25382 -0.482973
-0.50752 0.240234 -0.489784
0.262523 -0.507147 -0.511017
0.215375 0.504631 -0.48834
0.230811 -0.522858 -0.521575
0.529672 0.242 -0.490462
-0.488407 0.222491 -0.497971
0.268425 -0.509015 -0.502761
-0.501438 0.253797 -0.480158
0.503667 0.215155 -0.441579
0.241676 0.48715 0.489554
0.278212 0.481317 -0.502263
0.551216 0.241463 0.452377
0.220589 0.500841 0.498795
0.210125 0.484457 -0.445376
0.220026 0.51185 0.475367
0.211147 -0.478881 0.496394
0.485448 0.211288 0.482439
-0.536182 0.217177 0.469215
0.185936 0.516478 0.479587
0.208937 0.481983 -0.497752
0.224909 0.479493 0.500844
0.186603 -0.48848 0.493208
0.495033 0.240964 0.524205
-0.470765 0.217414 0.511743
0.261396 -0.51376 0.466371
0.226944 -0.504845 -0.4955
0.24833 0.522168 -0.532998
0.236881 -0.472682 -0.52927
0.485737 0.282715 -0.517195
-0.488519 0.231895 -0.476178
0.218096 0.513027 -0.489397
0.234376 -0.512983 -0.492128
0.497174 0.250156 -0.506182
-0.505289 0.238224 -0.507294
0.218584 -0.485956 -0.475475
0.543938 0.235279 -0.475387
0.495562 0.264239 -0.442142
0.232057 0.473937 -0.510142
0.235887 0.519885 0.484631
0.228938 -0.522657 0.443345
-0.486366 0.215268 0.488468
0.254934 0.446686 0.479385
0.256221 0.503626 -0.491436
0.236289 -0.473427 0.500672
0.235091 0.47787 -0.500099
0.248927 0.505505 0.479644
0.519364 0.218893 0.496764
-0.500768 0.206402 0.474541
0.237725 0.478339 0.503907
0.231237 0.493301 -0.47831
0.243817 0.516813 0.516992
0.213606 -0.529792 0.494536
0.503576 0.253953 0.491275
-0.496896 0.262294 0.50524
0.245591 -0.485008 0.480487
0.244365 -0.468988 -0.513821
0.248955 0.491113 -0.523102
0.265421 -0.468295 -0.489624
0.497444 0.274572 -0.473417
-0.474538 0.224127 -0.490129
0.233458 -0.501511 0.469717
0.28128 -0.530547 -0.490792
0.254371 -0.474262 -0.479972
0.538737 0.237214 -0.493718
-0.4635 0.234514 -0.527185
0.225679 -0.507953 0.505034
0.270434 -0.493969 -0.478821
0.470139 0.259235 -0.498463
0.493111 0.209105 -0.467693
0.262675 0.49022 0.478333
0.254063 0.48882 0.45561
0.230682 0.487087 -0.489943
-0.462294 0.246522 0.465938
0.247648 0.531048 0.51418
0.255236 -0.467243 0.496287
0.488508 0.251732 0.50034
-0.493957 0.257356 0.477286
0.232556 0.494493 0.510174
0.274847 0.487078 -0.516528
0.221801 0.510288 0.487992
0.246964 -0.473175 0.48634
0.485531 0.254179 0.514609
-0.503915 0.246655 0.491146
0.254808 -0.51831 0.501606
0.268872 -0.49364 -0.51183
0.272671 0.505701 -0.492448
0.240371 -0.50571 -0.484521
0.504566 0.275711 -0.497783
-0.483773 0.262586 -0.508682
0.259036 -0.494798 -0.507699
0.273134 0.496536 -0.485339
0.233832 -0.491267 -0.460998
0.465631 0.258115 -0.457127
0.24121 0.483903 -0.489739
0.24203 -0.486364 -0.482037
-0.495335 0.267111 -0.463441
0.256853 -0.467835 0.496044
-0.501297 0.223843 -0.472709
0.248573 -0.491924 0.458108
0.24371 -0.510798 0.483732
0.212985 0.483976 0.480227
0.30748 0.519848 0.520985
0.256749 -0.485217 0.487363
-0.46275 0.248667 0.475313
0.271138 0.482492 0.537552
0.257407 0.507626 -0.49507
0.269701 0.484138 0.522534
0.263956 -0.533003 0.499946
0.475362 0.258147 0.491152
-0.509493 0.28817 0.480667
0.268658 -0.542729 0.488188
0.236386 -0.469346 -0.48844
0.261891 0.484732 -0.531986
0.245114 -0.486545 -0.507074
0.487186 0.299561 -0.500243
-0.523542 0.293463 -0.525559
0.255423 -0.500047 -0.485485
0.250233 0.51193 -0.449962
0.269831 -0.447937 -0.462143
0.524464 0.274271 -0.489948
-0.517587 0.264144 -0.483579
0.232168 -0.493826 0.467865
0.251596 -0.494002 -0.464999
0.489677 0.232389 -0.45052
0.270107 0.468169 0.455337
-0.480396 0.238322 0.447919
0.294593 0.480831 0.491374
0.278409 0.490129 -0.517589
0.292953 0.496322 0.471667
0.249117 0.477313 0.499265
0.255735 0.511745 0.431709
0.264121 -0.468652 0.51339
0.499229 0.279597 0.48565
-0.523913 0.281232 0.446957
0.260761 0.494449 0.52491
0.267832 0.502983 -0.495346
0.267524 0.535959 0.495387
0.294071 -0.514563 0.476219
0.495645 0.271609 0.477048
-0.478905 0.255529 0.489531
0.273166 -0.476182 0.507099
0.263294 -0.523629 -0.511857
0.272728 0.521019 -0.461635
0.25036 -0.50906 -0.490836
0.49885 0.283743 -0.490415
-0.515649 0.277174 -0.503254
0.275125 -0.543548 0.517771
0.29912 -0.508405 -0.467631
0.285671 -0.517477 -0.501861
0.495228 0.274934 -0.490168
-0.490372 0.271914 -0.465264
0.24871 -0.493133 0.495443
0.253121 0.487216 -0.533105
0.512949 0.290574 -0.474426
0.245047 -0.504049 0.464315
0.272943 0.50943 -0.493126
0.267057 -0.452981 0.47006
-0.47554 0.297707 -0.46479
0.276767 0.493827 0.463577
0.278118 0.518055 0.4737
0.500101 0.278871 0.453466
0.290207 0.48917 0.490995
0.283935 0.463143 -0.479539
0.275578 0.504515 0.484959
0.295863 -0.528593 0.479357
0.499969 0.297962 0.455944
0.293258 0.499412 0.473034
0.298569 0.435753 -0.496714
0.290131 0.470479 0.506359
0.289534 -0.466232 0.455345
0.512072 0.259033 0.496231
0.267608 0.43958 0.507722
0.296337 0.519355 -0.521958
0.279283 0.53287 0.541567
0.263873 -0.516597 0.516837
0.49764 0.244181 0.505805
-0.466453 0.261028 0.489519
0.239235 -0.497263 0.519459
0.299901 -0.481991 -0.490829
0.288801 0.491233 -0.515337
0.27771 -0.482251 -0.494071
0.53463 0.301311 -0.509009
-0.481732 0.298499 -0.510346
0.301634 -0.485103 0.481663
0.276604 0.529051 -0.484581
0.281264 -0.484805 -0.483924
-0.505765 0.328076 -0.513468
0.514359 0.31157 -0.453623
-0.536543 0.274191 -0.440941
0.276657 -0.458178 0.535042
0.508442 0.29442 -0.439022
0.273044 0.469694 -0.463475
0.482208 0.300744 -0.444668
0.277763 0.500717 0.493986
0.293992 0.518162 0.504225
0.290419 -0.512692 0.486575
0.282851 0.476953 0.473772
0.296823 0.50331 0.498207
0.28553 0.477258 0.476275
0.303441 -0.522835 0.479103
0.487864 0.290593 0.500063
-0.521213 0.279164 0.511124
0.28351 0.458157 -0.459466
0.272308 0.483041 0.506416
0.280913 -0.477598 0.482047
0.522874 0.303561 0.490637
-0.4984 0.253554 0.459452
0.303298 0.508855 0.490742
0.281722 0.481719 -0.493069
0.280078 0.530286 0.496026
0.314117 -0.464353 0.500141
0.513212 0.335118 0.534531
-0.500117 0.310215 0.492347
0.312896 -0.552622 0.489421
0.274529 -0.482411 -0.501721
0.287996 0.487476 -0.471283
0.358547 -0.495346 -0.49541
0.500264 0.294984 -0.504246
-0.491868 0.311265 -0.494634
0.315862 -0.444469 -0.518893
0.29394 0.480883 -0.475023
0.293235 -0.512506 -0.496415
0.49869 0.272071 -0.495763
0.297328 -0.462626 0.51064
0.283555 0.48764 -0.490142
0.280163 -0.479273 -0.454425
-0.513975 0.264526 -0.457348
0.294086 -0.440066 0.509192
0.460719 0.287719 -0.454389
0.307532 0.521555 -0.468325
0.28994 -0.469095 -0.469078
0.545766 0.278797 -0.502304
-0.48391 0.303546 0.447925
0.518059 0.28502 0.504976
0.323469 0.510568 0.468944
0.327238 0.464824 -0.485657
0.322929 0.5033 0.493933
0.297087 -0.494227 0.448724
0.524367 0.30645 0.481104
0.292206 0.485994 -0.501736
0.313786 0.51538 0.474341
0.298821 -0.484085 0.496346
-0.486213 0.299204 0.495605
0.326548 0.490255 0.509649
0.318254 0.488321 -0.511676
0.336563 0.477687 0.487254
0.298964 -0.504237 0.537538
0.488433 0.322772 0.485211
-0.502049 0.292824 0.477031
0.301483 -0.519409 0.484285
0.323323 -0.507436 -0.494636
0.302108 0.493388 -0.505929
0.30768 -0.527312 -0.504516
0.49917 0.365262 -0.484806
-0.476686 0.309304 -0.463103
0.313013 -0.517371 0.515502
0.311767 -0.520115 -0.506171
0.318053 0.513281 -0.48475
0.543189 0.309644 -0.517709
-0.459927 0.289412 -0.487517
0.277417 -0.48597 0.476504
0.299265 -0.471371 -0.526716
0.302672 0.494213 -0.482635
0.487973 0.241392 -0.462791
0.349592 0.515978 -0.502557
0.273833 -0.501788 -0.486274
0.310376 -0.464725 0.488217
0.312119 -0.448374 -0.489956
-0.477794 0.294665 0.413754
0.318055 0.478967 0.494651
0.296783 0.472705 -0.476042
0.2779 0.463106 0.467079
0.498783 0.322703 0.464506
0.314435 0.500163 0.45667
0.501253 0.294674 0.488381
-0.477189 0.266077 0.484892
0.283263 0.481516 -0.47723
0.294692 0.484449 0.529855
0.485287 0.279318 0.495221
-0.489374 0.324753 0.46564
0.309256 0.473956 0.519444
0.332463 0.504426 -0.542861
0.298189 0.48877 0.525834
0.312874 -0.524074 0.485615
0.486992 0.265828 0.536507
-0.505985 0.289471 0.529728
0.312846 -0.517638 0.478397
0.364491 -0.512429 -0.507536
0.330704 0.484051 -0.473067
0.334301 -0.527638 -0.530181
0.494932 0.319757 -0.493167
-0.506244 0.311286 -0.503937
0.295055 -0.500142 0.493533
0.307873 -0.501921 -0.50037
0.348951 0.505158 -0.486594
0.319541 -0.496328 -0.502908
-0.539631 0.348961 -0.522045
0.323119 -0.496364 0.497818
0.339842 -0.454188 -0.516839
0.347695 0.520054 -0.448662
0.518574 0.332604 -0.429312
0.3115 -0.457837 0.467567
0.470626 0.356883 -0.461578
-0.505183 0.281665 -0.498114
0.31961 -0.466986 0.5144
0.336393 -0.453554 -0.528426
0.344107 -0.517295 -0.471477
0.312898 0.50132 -0.443412
0.318469 0.543157 0.470584
0.303556 0.451421 -0.530634
0.309826 -0.512681 0.473217
0.316774 0.4779 0.537083
0.309945 0.482977 -0.509368
0.323803 -0.463127 0.480985
0.53915 0.289659 0.435924
-0.522408 0.33396 0.490097
0.337916 0.489744 -0.498416
0.30398 0.504818 0.479
0.315975 -0.480197 0.481775
0.482831 0.318635 0.496268
-0.499557 0.332359 0.506794
0.303818 0.502396 0.531204
0.344292 0.510344 -0.502198
0.320812 0.512872 0.456517
0.331867 -0.514632 0.534657
0.510629 0.311683 0.518654
-0.519158 0.30089 0.504139
0.297391 -0.493296 0.482115
0.312551 -0.493008 -0.486269
0.354013 0.48195 -0.533031
0.334818 -0.490991 -0.484896
0.489063 0.338604 -0.533386
-0.484593 0.337996 -0.501566
0.353654 -0.46291 0.491883
0.314998 -0.485237 -0.490525
0.311186 0.513747 -0.517787
0.326078 -0.464377 -0.515801
0.517973 0.38293 -0.490548
-0.497297 0.343532 -0.49134
0.358846 -0.504878 0.504309
0.376117 -0.458199 -0.492216
0.317844 0.536353 -0.473535
0.341856 -0.52671 -0.544439
-0.533549 0.352275 -0.471202
0.341481 -0.517982 -0.49316
0.492904 0.327965 -0.472957
-0.483716 0.348147 -0.47411
0.372898 -0.446076 -0.437856
-0.508 0.324173 -0.462136
0.320696 0.488128 0.471319
0.35394 -0.518312 0.450025
0.474973 0.324174 0.480666
0.508027 0.326975 0.461943
0.379369 0.473985 0.522395
0.340553 0.499478 0.471651
0.339034 -0.515007 0.445577
0.509441 0.346357 0.46322
0.326446 0.461266 -0.50566
0.351767 0.500166 0.493296
0.344817 -0.530749 0.466761
0.510428 0.321447 0.514039
-0.473905 0.322597 0.475917
0.311616 0.46728 0.494869
0.306676 0.50197 -0.454444
0.358513 0.487859 0.491095
0.354087 -0.489099 0.506878
0.512959 0.313821 0.523211
-0.452819 0.333834 0.508768
0.320503 -0.498078 0.49308
0.347487 -0.511903 -0.50492
0.35566 0.500942 -0.465277
0.340156 -0.503526 -0.522474
0.523036 0.35543 -0.506381
-0.474623 0.335963 -0.456546
0.33103 -0.491117 0.504343
0.343279 -0.520617 -0.533526
0.314954 -0.48691 -0.536487
-0.500253 0.31908 -0.496891
0.394889 -0.49939 -0.521483
0.320108 0.53508 -0.455986
0.343192 -0.489674 -0.491144
0.480568 0.356198 -0.517178
-0.468206 0.344728 -0.494389
0.307173 -0.487185 -0.495901
0.326327 0.535136 -0.447267
0.505684 0.335432 -0.491936
0.354029 0.499125 -0.485541
0.488917 0.359492 -0.470436
0.354925 0.547737 -0.417626
0.344817 -0.506791 -0.448749
0.359766 0.474078 -0.47865
0.339984 0.472832 0.460835
0.314267 0.440725 0.504169
0.290966 0.492466 0.472967
0.337193 0.476718 0.515615
0.344037 0.490814 -0.483946
0.341054 0.526637 0.475028
0.336541 -0.49649 0.463097
-0.512103 0.321868 0.488592
0.331236 0.488701 -0.510307
0.286098 0.498177 0.514635
0.376242 -0.498766 0.492626
0.48933 0.342049 0.495964
-0.475797 0.356983 0.475779
0.348599 0.471793 0.476346
0.376541 0.465803 -0.512105
0.333444 0.506959 0.467577
0.329901 -0.499702 0.505052
0.498579 0.331077 0.454217
-0.515432 0.325099 0.504194
0.323947 -0.495975 0.489399
0.308547 -0.495545 -0.489635
0.365294 0.482125 -0.504896
0.352781 -0.495154 -0.500952
0.5041 0.383663 -0.480466
-0.51132 0.357598 -0.472098
0.378378 -0.516069 0.520243
0.326275 -0.469475 -0.503778
0.369144 0.504951 -0.500724
0.338525 -0.521634 -0.499154
0.469786 0.321461 -0.476759
-0.488576 0.353335 -0.501135
0.357435 -0.501563 0.499264
0.322152 -0.530569 -0.44985
0.478292 0.404696 -0.507371
0.365403 -0.484896 0.503805
0.348365 -0.491476 -0.514122
0.373845 0.551332 -0.476878
0.304045 -0.455127 0.510461
0.366013 -0.47565 -0.458477
0.506893 0.327119 -0.464004
-0.522438 0.364006 -0.443121
0.371325 -0.457952 0.492577
0.505846 0.353382 -0.490964
-0.514429 0.357675 -0.445215
0.354793 0.483004 0.436948
0.350235 0.501012 -0.495648
0.319409 -0.477095 0.465218
0.331553 0.465328 0.523286
0.372376 0.442899 -0.45619
0.354036 0.519521 0.464072
0.339705 -0.521985 0.465042
-0.527992 0.367557 0.464278
0.369746 -0.487543 0.485207
0.373257 0.481968 0.470256
0.348732 0.478021 -0.489603
0.366661 0.508389 0.496676
0.31979 -0.520167 0.477341
0.524248 0.294305 0.498704
-0.517416 0.332168 0.490909
0.37386 0.495142 0.47085
0.350744 0.50013 -0.493082
0.334557 0.518436 0.493882
0.337439 -0.53533 0.521916
0.51686 0.342933 0.509368
-0.486268 0.353828 0.498928
0.324477 -0.46348 0.48081
0.372213 -0.470536 -0.497079
0.372964 0.451583 -0.483106
0.400737 -0.500845 -0.465422
0.480409 0.382004 -0.503687
-0.485691 0.365319 -0.491542
0.368671 -0.455682 0.508032
0.363763 -0.485981 -0.532673
0.351042 0.512106 -0.535597
0.419789 -0.527625 -0.483879
0.491481 0.359298 -0.493626
-0.519125 0.358337 -0.476758
0.335055 -0.498232 -0.486352
0.342511 -0.509666 -0.458362
0.502144 0.336272 -0.500563
0.375589 -0.469523 0.534234
0.396524 -0.465313 -0.426843
-0.498225 0.373558 -0.477715
0.37669 0.497746 -0.441391
0.34873 -0.459825 -0.535901
0.311104 -0.480155 -0.429531
-0.518365 0.375636 -0.425834
0.346123 0.474252 0.437384
0.353606 -0.495627 0.44789
-0.509743 0.349057 0.490862
0.366447 0.51255 0.47105
0.369182 -0.510792 0.46078
0.464615 0.385388 0.455779
-0.526375 0.353209 0.420367
0.347572 0.500048 0.499031
0.332537 0.474691 -0.497249
0.332119 0.50426 0.478252
0.479626 0.345497 0.502597
0.3686 0.491144 0.505729
0.357381 0.468383 -0.51173
0.352107 -0.485013 0.477951
0.486915 0.358466 0.482767
-0.510775 0.361022 0.474781
0.33793 0.481332 -0.47823
0.367936 0.522259 0.476533
0.496164 0.374211 0.482822
-0.478404 0.34533 0.489964
0.364882 0.46411 0.486796
0.349513 0.508797 -0.46867
0.354761 0.523558 0.48507
0.382419 -0.473973 0.494322
0.457607 0.344194 0.458096
-0.493993 0.314965 0.496132
0.379529 -0.493511 0.511509
0.361344 -0.512326 -0.510171
0.409236 0.496477 -0.489814
0.385024 -0.514833 -0.50651
0.49126 0.421529 -0.47113
-0.463187 0.323658 -0.4954
0.376877 -0.50565 0.489329
0.37976 -0.497676 -0.500947
0.401403 0.487754 -0.487047
0.35683 -0.465492 -0.518821
0.513475 0.358193 -0.477048
-0.482992 0.37328 -0.529
0.367725 -0.507617 0.489181
0.363798 -0.480653 -0.478783
0.343464 0.527518 -0.445442
0.383532 -0.513681 -0.456184
-0.491528 0.358504 -0.47154
0.363495 -0.449053 0.502365
0.359241 -0.47553 -0.497624
0.384555 0.496997 -0.459008
0.353198 -0.501523 -0.501946
0.384016 -0.470846 -0.518366
-0.490905 0.377327 -0.473579
0.375615 -0.440421 0.474734
0.374405 0.46976 -0.423588
0.374572 -0.476981 -0.505264
0.358192 0.4017 0.494201
0.528596 0.354344 0.460304
0.390106 -0.505798 0.453442
-0.501958 0.395231 0.434914
0.379792 0.489282 0.402662
0.481813 0.38795 0.429589
-0.510874 0.371337 0.465845
0.363646 0.448709 0.50545
0.380139 0.468558 -0.508512
0.491903 0.349771 0.454893
-0.532128 0.352277 0.464512
0.39254 0.462494 0.505579
0.358613 0.464336 -0.488967
0.412135 0.494997 0.468536
0.375092 -0.462697 0.45267
0.373088 0.483437 0.455574
0.370332 0.489802 -0.499633
0.353888 0.51107 0.510709
0.350049 -0.48133 0.48881
0.466403 0.389983 0.511052
0.349327 0.522793 0.484572
0.387466 0.467122 -0.479597
0.385432 0.530251 0.486236
0.35703 -0.463635 0.473081
0.495366 0.38039 0.500594
-0.490091 0.377357 0.510023
0.377672 -0.490387 0.46041
0.355099 -0.526561 -0.477487
0.382956 0.516623 -0.52151
0.385406 -0.516607 -0.487887
0.473053 0.421076 -0.510088
-0.520281 0.357258 -0.498887
0.381483 -0.487399 0.504089
0.350557 -0.522968 -0.504788
0.40302 0.52014 -0.547375
0.385694 -0.476847 -0.441274
-0.477157 0.373886 -0.467079
0.389743 -0.462642 0.534663
0.382579 0.462366 -0.457505
0.394803 -0.498051 -0.489059
0.496159 0.404498 -0.504823
-0.482062 0.393956 -0.468246
0.385191 -0.431403 -0.47888
0.397887 0.514659 -0.481551
0.343913 -0.54044 -0.454083
0.478582 0.383199 -0.47228
-0.45468 0.326374 -0.510668
0.380197 -0.476408 -0.436968
0.359246 0.519788 -0.401679
0.37607 -0.477942 -0.469652
0.385821 -0.477493 -0.431127
0.486766 0.389812 -0.465464
-0.471888 0.390159 -0.417377
0.385058 -0.409324 -0.518877
0.378428 -0.524265 -0.428813
0.518246 0.389418 -0.43178
0.392145 0.412271 0.522104
0.355321 0.443139 -0.495412
0.372165 0.542955 0.438672
-0.572051 0.419033 0.401786
-0.502103 0.381309 0.476889
0.383725 0.428992 -0.518862
0.372598 0.472723 0.51212
0.374998 0.501412 0.469804
0.380769 -0.488163 0.457851
0.498163 0.373859 0.474931
0.418689 0.479878 0.495587
0.384597 0.513297 -0.498211
0.370015 0.490702 0.436158
0.410439 -0.528967 0.475718
0.497222 0.368929 0.479931
-0.482021 0.347794 0.513759
0.403178 0.496853 0.503511
0.37865 0.465725 -0.510424
0.424881 0.511875 0.493372
0.403911 -0.500641 0.477049
0.485724 0.35087 0.460165
-0.523658 0.380749 0.529514
0.363906 0.473352 0.53757
0.404838 0.526716 -0.502268
0.365719 0.518668 0.528816
0.38653 -0.524812 0.472002
0.519947 0.398287 0.507863
-0.519557 0.398394 0.505819
0.380443 -0.510086 0.505952
0.413014 -0.509781 -0.511109
0.378525 0.504834 -0.516168
0.382864 -0.51011 -0.490111
0.514787 0.3559 -0.494474
-0.500706 0.430669 -0.518239
0.431568 -0.525412 0.510562
0.377473 -0.488999 -0.517962
0.420537 0.463989 -0.495299
0.381848 -0.509774 -0.519103
0.478811 0.359153 -0.48378
-0.483783 0.369448 -0.458088
0.378047 -0.491934 0.489619
0.380247 -0.518713 -0.483152
0.408832 0.529048 -0.501432
0.483093 0.438118 -0.464297
-0.490812 0.381303 -0.458653
0.405818 -0.490236 0.505152
0.378782 -0.467395 -0.518173
0.410446 0.521601 -0.483912
0.388555 -0.483586 -0.455531
-0.490426 0.4009 -0.484487
0.392881 0.516378 -0.470559
0.393312 -0.449107 -0.468475
0.488033 0.407884 -0.492089
-0.523534 0.383921 -0.468471
0.374658 -0.444975 -0.519145
-0.515368 0.35694 -0.451822
0.496889 0.403592 -0.415843
0.42683 0.512 0.414113
0.363283 0.417381 0.455444
0.498861 0.426582 0.46166
-0.490458 0.397309 0.41351
0.498343 0.428839 0.442855
0.363862 0.43872 0.484566
0.381381 0.430469 -0.54502
0.368968 -0.527843 0.446908
0.493514 0.387932 0.494178
-0.478941 0.38608 0.438161
0.401523 0.448424 0.47276
0.352615 0.496643 -0.49239
-0.515928 0.370584 0.494619
0.408745 0.451474 -0.501251
0.396185 0.491099 0.508409
0.409113 -0.483241 0.485609
0.482137 0.361612 0.483039
-0.470002 0.421974 0.513295
0.40825 0.513838 0.503037
0.396952 0.516641 -0.477622
0.387198 -0.480263 0.461522
0.522018 0.362927 0.479023
0.409951 0.487079 0.475727
0.373378 0.520295 -0.441872
0.384482 0.533908 0.507471
0.368952 -0.500706 0.50969
0.486342 0.416126 0.492093
-0.49834 0.416549 0.493517
0.406277 -0.467155 0.485746
0.357031 -0.487804 -0.502204
0.416345 0.498809 -0.479392
0.446415 -0.502516 -0.50173
0.49178 0.385839 -0.477726
-0.485745 0.426764 -0.515784
0.468656 -0.497478 -0.509421
0.394958 0.542194 -0.449631
0.400333 -0.468755 -0.485152
0.481494 0.389028 -0.484788
-0.542393 0.422117 -0.540441
0.419692 -0.494916 0.506111
0.406346 -0.472488 -0.513315
0.386989 0.515457 -0.46731
0.492819 0.420989 -0.487869
-0.504378 0.391077 -0.517685
0.413997 -0.469437 0.492411
0.39177 -0.471278 -0.510092
0.392393 -0.498634 -0.503614
0.534362 0.37103 -0.478592
-0.50723 0.382784 -0.48713
0.426517 -0.422734 -0.508556
0.414493 -0.494555 -0.390142
0.393629 -0.434742 -0.468129
-0.501692 0.386267 -0.465573
0.378059 -0.453615 0.495463
0.418179 -0.473713 -0.401379
0.466612 0.386873 -0.446151
-0.490436 0.381619 -0.442784
0.422062 -0.453224 0.495796
0.420028 -0.473919 -0.439255
0.507156 0.397438 -0.439451
-0.486805 0.358584 -0.414259
0.376646 0.491891 -0.445219
0.412641 0.475187 0.438735
0.491891 0.419242 0.403121
-0.4992 0.360297 0.369248
0.413516 0.451905 -0.498889
0.418575 0.481079 -0.496245
0.37809 -0.464295 0.441338
0.520191 0.389643 0.445747
0.43008 0.420414 0.501591
0.42513 0.457662 -0.484882
-0.522864 0.384577 0.480634
0.377275 0.495498 0.51761
0.414529 0.49026 0.446041
-0.520579 0.399453 0.464531
0.382887 0.447165 0.522335
0.415018 0.493659 -0.49808
0.357712 0.50062 0.488707
0.428957 -0.533808 0.471325
0.465648 0.398564 0.488122
-0.492693 0.410607 0.457115
0.394698 0.47784 0.506753
0.398358 0.509651 -0.492139
0.392151 0.489701 0.488069
0.348108 -0.502167 0.482638
0.545831 0.370185 0.532688
-0.469895 0.388402 0.518862
0.359437 0.49376 0.485423
0.386948 0.518827 -0.490514
0.42594 0.497553 0.480289
0.432331 -0.460354 0.518189
0.509079 0.41819 0.527714
-0.468054 0.395348 0.516898
0.413149 -0.504144 0.503366
0.446111 -0.49453 -0.520971
0.386693 0.47965 -0.500643
0.429542 -0.461086 -0.513035
0.503857 0.40853 -0.458089
-0.505839 0.383449 -0.513004
0.428136 -0.481735 0.505604
0.424528 -0.483944 -0.487112
0.420424 0.505578 -0.480847
0.399313 -0.506452 -0.471
0.507205 0.420151 -0.50327
-0.503801 0.404358 -0.494624
0.388176 -0.464229 0.469603
0.381175 -0.473382 -0.49751
0.344658 0.492738 -0.505711
0.406783 -0.514543 -0.493738
0.472945 0.388583 -0.472493
0.416786 -0.486083 0.47741
0.415285 -0.484161 -0.4576
0.527688 0.394426 -0.451811
-0.528982 0.39905 -0.457687
0.405864 -0.482628 -0.488013
0.406698 0.5201 -0.468317
0.429082 -0.478189 -0.478088
0.535753 0.41027 -0.45845
0.449128 -0.474171 0.499413
0.453921 -0.465166 -0.524525
0.374947 0.500915 -0.431248
0.408144 -0.488104 -0.431393
-0.511847 0.421109 -0.455703
0.430669 0.460406 -0.434534
0.394536 -0.496173 -0.457005
0.499647 0.417719 -0.427194
0.3978 -0.39609 -0.50589
0.442126 0.537967 -0.415053
0.440988 0.506778 -0.401695
0.482134 0.41382 -0.426174
-0.489173 0.396269 -0.375423
0.396403 -0.412562 0.50288
0.407114 0.388641 0.481742
0.412398 -0.531368 0.423232
0.412514 0.391351 -0.528558
0.523108 0.408916 0.44987
-0.514227 0.425273 0.43351
0.455343 0.40382 -0.504218
0.424642 0.473461 0.423322
0.414472 -0.498841 0.423934
0.430839 0.421938 -0.49183
0.398392 0.489998 0.448634
-0.516576 0.42021 0.473118
0.421362 0.442667 0.502286
0.39532 0.446386 -0.495198
0.422405 -0.478345 0.467592
-0.511956 0.429972 0.475195
0.426594 0.478248 0.496421
0.403079 0.488121 -0.516191
0.378662 -0.498067 0.456072
0.495241 0.397161 0.466227
-0.528075 0.40774 0.484362
0.425259 0.464982 0.485247
0.407503 0.512046 -0.523243
0.437135 0.510716 0.513537
0.538022 0.444064 0.488268
0.414858 0.500577 0.520957
0.428756 0.50487 -0.492413
0.420935 0.503108 0.474997
0.434137 -0.532716 0.50159
0.504176 0.414591 0.499301
-0.527943 0.400931 0.493367
0.411982 0.4727 0.473615
0.439226 0.481368 -0.475993
0.410864 0.52278 0.473082
0.404282 -0.508137 0.492726
0.4616 0.356994 0.472041
-0.519431 0.414522 0.483199
0.393045 -0.511414 0.517204
0.422009 -0.504158 -0.506945
0.410247 0.523901 -0.485955
0.381945 -0.492964 -0.513277
0.500626 0.411211 -0.49708
-0.517312 0.426413 -0.507737
0.422723 -0.475451 0.499243
0.414963 -0.506397 -0.496348
0.420927 0.461139 -0.482253
0.396919 -0.48768 -0.48473
0.509587 0.440482 -0.469389
-0.513803 0.439719 -0.476702
0.395855 -0.488491 -0.49186
0.444966 -0.493442 -0.475852
0.480695 0.435653 -0.514073
-0.507173 0.427628 -0.495415
0.423174 -0.428941 0.52596
0.423767 0.506643 -0.486087
-0.502053 0.415676 -0.481762
0.360778 -0.440087 0.514824
0.44433 -0.452851 -0.48802
0.41566 0.491368 -0.458153
0.413608 -0.501679 -0.497321
0.493237 0.436541 -0.44615
0.42143 -0.443476 0.467117
0.45135 0.47815 -0.451025
0.494356 0.419839 -0.43275
0.437872 0.495117 -0.462421
0.434555 -0.525868 -0.43303
0.49693 0.468133 -0.446398
-0.517055 0.420657 -0.426926
0.404044 -0.421672 0.489466
0.383474 -0.508585 -0.44023
0.410383 -0.416818 -0.488024
0.40982 0.476059 -0.405276
0.422212 -0.499152 -0.416356
0.442964 -0.425783 0.437653
0.412454 -0.419481 -0.527039
0.416218 -0.421117 -0.468057
0.376783 0.456944 -0.375803
0.426658 0.392147 0.484414
0.517027 0.388611 0.389362
-0.494318 0.408232 0.37332
-0.503852 0.475389 0.430137
-0.51085 0.410511 0.421216
0.4062 0.453672 -0.470506
0.411779 0.49583 0.403987
0.442374 -0.489963 0.455575
0.500472 0.4016 0.411308
0.396498 0.456332 0.50168
0.441266 -0.534792 0.460399
-0.479901 0.405404 0.438041
0.442466 0.432239 0.500822
0.446335 0.434734 -0.520027
0.432156 0.523131 0.459145
0.409719 -0.437389 0.444554
0.435123 0.462368 0.508937
0.446596 0.450335 -0.443715
0.444709 0.540602 0.426923
0.421365 -0.507789 0.480839
-0.484531 0.423648 0.462765
0.41481 0.456348 0.476386
0.448326 0.501524 -0.509912
0.446827 -0.520081 0.462877
0.473978 0.432702 0.471938
-0.505445 0.392119 0.447531
0.391749 0.4817 0.494063
0.437134 0.514802 -0.519849
0.406765 0.49733 0.506504
0.413724 -0.49942 0.468871
0.512494 0.423431 0.493666
-0.500001 0.423788 0.471188
0.43697 0.513102 0.504809
0.394319 0.478496 -0.49658
0.416208 0.482599 0.485371
0.405969 -0.49551 0.494435
0.467349 0.43825 0.519381
-0.511716 0.431677 0.48382
0.430425 0.513546 0.510633
0.434132 0.525525 -0.485255
0.393168 0.49943 0.475848
0.414459 -0.489015 0.512566
0.473875 0.405643 0.519851
-0.512163 0.357213 0.479835
0.450262 -0.501176 0.539129
0.417822 -0.49837 -0.499269
0.443856 0.494171 -0.531072
0.398595 -0.516713 -0.501833
0.502857 0.438485 -0.504386
-0.480443 0.406204 -0.515877
0.420347 -0.489802 0.501186
0.432622 -0.480284 -0.477788
0.412298 0.493231 -0.503375
0.431607 -0.44997 -0.47034
0.482389 0.447649 -0.485985
-0.494095 0.424894 -0.483228
0.443782 -0.49176 0.500081
0.438939 -0.512918 -0.509867
0.430919 0.471257 -0.521007
0.420437 -0.505021 -0.476468
0.485762 0.429249 -0.511862
-0.506637 0.427223 -0.469022
0.447325 -0.437671 0.500459
0.42741 -0.451745 -0.478183
0.461302 0.463523 -0.44184
0.441898 -0.531131 -0.461979
0.519081 0.42533 -0.431266
0.425565 -0.422219 0.465353
0.407537 -0.500803 -0.453518
0.495508 0.465425 -0.457262
-0.497126 0.447661 -0.470343
0.408793 -0.45666 0.52268
0.425465 0.480953 -0.446423
0.45205 -0.512372 -0.426607
0.45741 0.408163 -0.441736
-0.506847 0.449097 -0.448842
0.437081 -0.417565 0.501051
0.446597 0.465279 -0.472858
-0.483822 0.417233 -0.450902
0.38893 -0.396458 0.457775
0.42121 -0.447172 -0.489967
0.4074 -0.487337 -0.462216
0.527534 0.438019 -0.446871
-0.478172 0.416173 -0.424285
0.434233 -0.407341 0.486238
0.430107 -0.442035 0.493379
0.426649 -0.370781 -0.506777
0.454938 -0.395592 0.453177
0.405845 -0.394183 -0.513542
0.410784 0.510136 -0.395665
0.453533 -0.33673 0.492473
0.415465 0.378821 -0.497391
0.446169 0.470138 0.372879
0.512596 0.413175 0.428908
0.423982 0.479816 0.357158
0.502508 0.414065 0.398327
-0.471155 0.426404 0.408762
0.442192 0.422983 0.500198
0.41651 -0.50695 0.423873
-0.506178 0.424216 0.414288
0.516948 0.452703 0.409699
0.440609 0.403148 0.507928
0.459126 0.490845 0.424171
0.435398 -0.51575 0.457924
0.422856 -0.512845 0.4398
0.454361 0.450106 -0.514948
0.443544 -0.491405 0.462166
-0.485781 0.473922 0.404655
0.417922 0.506829 0.51098
0.43993 0.504829 -0.519227
0.442093 0.497715 0.481288
0.454486 -0.496523 0.472441
0.460639 0.497106 0.483492
0.419107 0.521093 -0.470243
0.417489 0.497856 0.53905
0.415953 -0.482626 0.509781
0.534408 0.414709 0.463898
-0.537072 0.421671 0.461889
0.417054 0.51554 0.487396
0.432528 0.463609 -0.483475
0.432985 0.498912 0.495627
0.413418 -0.504759 0.451827
0.497149 0.467877 0.463609
-0.481937 0.448263 0.47034
0.429147 0.46157 0.494285
0.403254 0.481959 -0.460469
0.42704 0.548412 0.530061
0.432109 -0.467627 0.523809
0.489367 0.457404 0.422885
-0.507658 0.43077 0.493552
0.453304 -0.507243 0.484621
0.412323 -0.503358 -0.53331
0.465511 0.523156 -0.53095
0.452608 -0.485951 -0.512793
0.530081 0.458434 -0.495721
-0.523822 0.447211 -0.487201
0.434719 -0.49473 -0.520089
0.410103 0.499533 -0.502494
0.429715 -0.529645 -0.516161
-0.486744 0.450958 -0.478039
0.421661 -0.472722 -0.500604
0.412063 0.514133 -0.486468
0.44592 -0.494556 -0.450317
0.518749 0.435043 -0.470053
-0.537759 0.46028 -0.437124
0.446415 -0.462074 0.504869
0.437159 0.54051 -0.475964
0.525995 0.4184 -0.450207
-0.480686 0.462295 -0.447964
0.466381 -0.459882 0.495386
0.460982 -0.474977 -0.4763
0.445679 0.507088 -0.448922
0.488518 -0.481657 -0.455533
0.509227 0.46338 -0.438034
0.392728 -0.466116 0.526585
0.434823 -0.478125 -0.491645
0.430698 0.515552 -0.468593
0.438027 -0.488553 -0.437906
0.509664 0.435384 -0.436436
-0.52479 0.430535 -0.397416
0.431392 -0.442001 -0.512067
0.425217 -0.516013 -0.493104
0.49193 0.437837 -0.435098
-0.489046 0.469673 -0.463286
0.444213 -0.397511 0.494083
0.442668 -0.444694 -0.466812
0.471645 0.520693 -0.396815
0.467346 -0.540617 -0.466778
-0.511387 0.431152 -0.485431
0.437498 -0.407995 0.53496
0.438584 0.468752 -0.434991
-0.469798 0.423381 -0.384486
0.420957 0.510132 -0.436387
-0.487611 0.449662 -0.430782
0.435131 -0.352559 0.4814
-0.501988 0.452097 -0.399621
0.441566 0.477896 -0.430525
0.471853 -0.496032 -0.413747
0.433843 -0.354057 0.444198
0.491586 0.441671 -0.367559
0.384683 -0.384912 0.513122
0.435104 -0.506758 -0.3826
0.437434 -0.338773 0.48896
0.433995 0.338116 0.51082
0.468686 -0.503157 0.35702
0.453507 0.397629 -0.483501
0.412809 0.486609 0.350829
0.448359 0.386712 0.505304
-0.476852 0.443914 0.351089
0.446309 0.501799 0.406613
0.40521 0.414807 0.489383
0.420795 0.370718 -0.50446
0.506034 0.417805 0.398431
0.455885 0.408576 0.550525
0.456119 0.467968 0.41806
0.517168 0.435905 0.404836
0.448165 0.508536 0.458803
0.509688 0.44559 0.425225
-0.522893 0.42406 0.43866
0.439667 0.50093 0.404335
0.49767 0.46733 0.441191
-0.518296 0.444053 0.423712
0.466528 0.436982 -0.487536
0.449197 0.492656 0.44059
0.414692 -0.489101 0.443561
0.49692 0.428032 0.448194
-0.484779 0.430097 0.453034
0.460067 0.428341 -0.474103
0.485915 0.465145 0.505172
0.437655 -0.504401 0.444511
0.52311 0.470861 0.459186
-0.488646 0.425112 0.429854
0.414127 0.451693 0.483692
0.421423 0.462628 -0.456853
0.430468 0.504787 0.440654
0.430199 -0.497908 0.454933
0.488285 0.458157 0.464941
-0.501701 0.423615 0.452956
0.44577 0.478593 0.481264
0.445684 0.473586 -0.490805
0.445552 0.515923 0.426115
0.515995 0.437782 0.500959
-0.46181 0.423221 0.48518
0.45883 0.478127 0.531341
0.413305 0.509823 0.490377
0.401141 -0.49737 0.452078
0.526762 0.423683 0.481706
-0.51507 0.460681 0.488006
0.473751 0.497612 0.507696
0.401275 0.472676 -0.521945
0.418444 0.525086 0.517593
0.445334 -0.506719 0.477076
0.484834 0.428425 0.510738
-0.494459 0.443394 0.479276
0.439526 0.502538 0.520513
0.437958 0.504727 -0.510337
0.436685 0.502296 0.494358
0.455251 -0.549175 0.445588
0.500898 0.432207 0.495258
-0.489321 0.484989 0.505803
0.437006 -0.51897 0.506943
0.479089 -0.525828 -0.527403
0.420929 0.499965 -0.525638
0.470542 -0.484716 -0.514489
0.494195 0.42957 -0.551586
-0.494566 0.478967 -0.503503
0.445603 -0.524683 0.50403
0.458141 -0.511527 -0.478265
0.444002 0.510061 -0.498544
0.432077 -0.509512 -0.471674
0.47454 0.462847 -0.482512
-0.501384 0.44501 -0.497432
0.428079 -0.464012 0.50599
0.486656 -0.469456 -0.511882
0.465851 0.515787 -0.518267
0.40491 -0.511187 -0.464031
0.49475 0.427247 -0.508765
-0.493872 0.464254 -0.493468
0.435414 -0.487943 0.490789
0.466612 -0.479574 -0.501095
0.431557 0.500908 -0.483178
0.459025 -0.502289 -0.490008
0.547308 0.402602 -0.467565
-0.527728 0.455958 -0.490624
0.445803 -0.460457 0.485876
0.451685 -0.469253 -0.519477
0.441255 0.469882 -0.491596
0.423429 -0.474812 -0.473424
0.477692 0.427014 -0.505366
-0.475067 0.449097 -0.474647
0.450858 -0.456837 0.511116
0.436577 -0.474857 -0.509026
0.465317 0.490346 -0.430611
-0.51567 0.458016 -0.461969
0.469414 -0.428002 0.523142
0.430253 -0.435014 -0.53492
-0.514906 0.441766 -0.456855
0.430516 -0.391372 0.521204
0.486113 -0.494659 -0.415851
0.54882 0.432968 -0.415339
-0.469277 0.467276 -0.404586
0.447463 -0.427853 0.477442
0.438881 -0.413829 -0.523175
0.480437 -0.54803 -0.396892
-0.512353 0.419276 -0.424322
0.471418 -0.460837 -0.403305
0.5034 0.473343 -0.412257
-0.527572 0.470483 -0.396304
0.450969 -0.387334 -0.481648
-0.489718 0.438171 -0.414976
0.452165 -0.411797 0.534682
0.458682 -0.354763 -0.51455
0.452953 0.47845 -0.411838
0.42506 -0.515636 -0.392251
0.470168 0.428711 -0.392834
-0.50316 0.440367 -0.352684
0.451795 -0.406369 -0.531987
0.445357 0.496556 -0.350085
0.433014 -0.512771 -0.38892
-0.509724 0.466357 -0.376862
0.466211 -0.356408 -0.461262
0.397162 -0.368512 0.485932
0.46142 -0.322116 -0.487366
0.471095 -0.362815 0.509445
0.412737 0.497543 -0.296152
0.412577 -0.481955 -0.344085
0.436585 0.293259 0.508151
0.425875 0.301743 0.494958
0.423913 0.349159 -0.497714
0.437902 0.505807 0.330351
0.464456 -0.497865 0.340357
0.495704 0.488779 0.36422
0.429542 0.372277 -0.502624
0.54283 0.442126 0.400442
0.459959 0.39007 -0.475206
0.398748 0.496944 0.377955
-0.525704 0.433346 0.381377
0.449778 0.401675 0.502359
0.437374 0.386647 -0.494977
0.47145 0.529872 0.39323
0.455739 0.375082 0.492428
0.459184 0.384982 -0.472725
0.513868 0.421407 0.40756
-0.539544 0.456149 0.418117
0.472836 0.423479 0.499055
0.453315 0.40701 -0.502613
0.512698 0.452001 0.420157
-0.517683 0.482786 0.406747
0.450704 -0.497156 0.443455
0.490219 0.45357 0.426291
0.435432 0.404605 0.504235
0.462634 0.428744 -0.504692
0.484494 0.48695 0.436143
-0.526188 0.453528 0.436894
0.444857 -0.505688 0.41216
0.470568 0.41936 0.455439
-0.513548 0.453586 0.470463
0.46692 0.455766 0.505527
0.455919 0.496472 -0.478333
0.456341 0.478388 0.432013
0.469114 -0.474145 0.482521
0.466987 0.432966 0.466984
-0.505744 0.444587 0.471486
0.469132 0.4382 -0.473702
0.439798 0.490341 0.484599
0.470094 -0.495136 0.445638
0.488207 0.460541 0.483188
-0.484483 0.443366 0.464856
0.470122 0.495619 0.460711
0.477968 0.471215 -0.480428
0.42163 0.508904 0.470827
0.475806 -0.487175 0.486313
0.531058 0.424219 0.476615
-0.510341 0.43498 0.480567
0.427889 0.471371 0.498681
0.448487 0.46332 -0.517884
0.442235 0.483509 0.517277
0.436412 -0.487021 0.489742
0.527373 0.480255 0.510407
-0.514487 0.474181 0.502777
0.460078 0.529115 0.480225
0.431139 0.510942 -0.481796
0.433041 0.499982 0.495579
0.474359 -0.512834 0.486767
0.481706 0.472364 0.508019
-0.509793 0.46159 0.49572
0.444592 -0.477906 0.498693
0.459913 -0.483285 -0.500437
0.442911 0.480218 -0.496778
0.489585 -0.519693 -0.490934
0.48648 0.459729 -0.474649
-0.477068 0.459938 -0.508103
0.453122 -0.503343 0.524596
0.442827 -0.506669 -0.497685
0.439446 -0.468519 -0.481035
0.491591 0.487828 -0.49553
-0.525697 0.459253 -0.482674
0.460335 -0.442665 0.462912
0.460974 -0.491409 -0.484634
0.46074 0.536527 -0.485467
0.475702 -0.488232 -0.437749
0.491696 0.485872 -0.51597
-0.508729 0.470643 -0.492914
0.445036 -0.494282 0.474524
0.454695 0.479527 -0.475941
0.46819 -0.511912 -0.496878
0.442273 -0.484022 0.485757
0.488238 -0.488876 -0.481747
0.493748 0.525267 -0.466569
0.43609 -0.521571 -0.449847
-0.540714 0.441361 -0.472152
0.46829 -0.435967 0.495501
0.467542 0.489717 -0.459174
0.463559 -0.472834 -0.43184
0.532831 0.415394 -0.454089
-0.518905 0.47781 -0.464565
0.458229 -0.4179 0.474695
0.432228 -0.45519 -0.494994
0.490877 0.523764 -0.435205
0.468595 -0.482047 -0.439345
-0.504178 0.447037 -0.422417
0.432941 -0.452117 0.483553
0.453841 -0.442223 -0.531508
0.482514 0.480551 -0.427048
0.474797 -0.516812 -0.44194
-0.506868 0.430446 -0.424136
0.479154 -0.41466 0.506561
0.453179 -0.410124 -0.501892
-0.480827 0.457675 -0.446377
0.469702 -0.428352 -0.507422
0.479506 0.460757 -0.404084
-0.535291 0.481832 -0.42123
0.441855 -0.431851 -0.507573
0.429849 0.501881 -0.45809
0.42715 -0.511085 -0.416581
0.492906 0.469706 -0.419616
-0.538379 0.461717 -0.397869
0.43314 -0.386382 0.472929
0.470646 -0.400637 -0.530056
0.459549 0.49134 -0.382312
0.463796 -0.479108 -0.400814
0.504136 0.488726 -0.391724
0.473174 -0.374419 0.473727
0.474957 -0.378585 -0.491773
0.482245 -0.370587 0.543852
0.459458 0.506542 -0.37524
0.491508 -0.507583 -0.350766
-0.496389 0.450734 -0.347954
0.433393 0.495356 -0.327411
0.437304 -0.475195 -0.378732
0.502151 0.446076 -0.380958
-0.53282 0.471847 -0.350853
0.432313 -0.363511 -0.516857
0.487245 0.434224 -0.350919
-0.495022 0.487134 -0.362099
0.427328 -0.339861 -0.452681
0.475613 -0.343048 0.467642
0.458412 -0.317982 -0.469398
-0.52172 0.468239 -0.310382
0.511413 0.473714 -0.290711
0.46934 -0.240591 0.459709
0.498839 0.496674 -0.282631
0.504906 0.4406 -0.265062
0.423272 -0.282335 0.454704
0.483729 -0.486264 -0.294884
0.459864 -0.264993 0.502858
0.488496 0.452917 0.225746
0.462255 0.515472 0.250462
0.471037 0.25295 -0.485547
0.411066 -0.465973 0.26318
0.461775 0.329345 0.542032
0.459921 0.512764 0.304113
0.507627 -0.52832 0.322597
0.472592 0.544596 0.264484
0.477265 0.483978 0.292652
-0.485919 0.470202 0.312229
0.46961 0.34962 -0.533318
0.416578 -0.518447 0.291918
-0.514384 0.469634 0.331126
0.449934 0.329772 0.526897
0.469206 0.444364 0.343857
0.46344 0.358395 0.512459
0.486027 0.462931 0.3532
-0.520164 0.455498 0.355108
0.429953 -0.461615 0.346386
0.53723 0.462317 0.369358
-0.520065 0.47369 0.393094
0.477972 -0.483245 0.391578
0.479556 0.451553 0.355205
0.48439 0.39653 0.488396
0.50534 0.459832 0.412147
-0.510881 0.465198 0.384094
0.41371 0.528645 0.386885
0.449879 -0.479904 0.405845
0.450215 0.449457 0.410996
0.467641 0.433459 0.464802
0.495409 0.521577 0.405434
0.473633 0.455667 0.482733
0.467736 0.515142 0.442918
0.467188 -0.514544 0.429863
0.490675 0.48422 0.401341
-0.516003 0.450397 0.403616
0.453376 0.513006 0.437069
0.424025 -0.504185 0.442085
0.540239 0.470104 0.439292
-0.500748 0.45716 0.411981
0.452009 0.453592 -0.501404
0.474343 0.500172 0.456565
0.47181 -0.490955 0.432953
0.508266 0.457611 0.467519
-0.513759 0.456326 0.389108
0.494734 0.424835 0.510238
0.467164 0.479428 -0.512828
0.464714 0.496069 0.471384
0.462822 -0.537122 0.430703
0.537164 0.507274 0.438084
-0.474067 0.489448 0.494709
0.443618 0.4568 0.523861
0.458484 0.465491 -0.5608
0.480177 0.500593 0.514036
0.456589 -0.48161 0.442602
0.513106 0.459574 0.478844
-0.519233 0.474002 0.464268
0.425743 0.454041 0.474009
0.446834 0.486155 -0.498352
0.467071 0.487998 0.494587
0.465472 -0.523577 0.427877
0.534729 0.493211 0.509833
-0.526327 0.471289 0.467594
0.43632 0.465176 0.489532
0.451556 0.449223 -0.479485
0.451904 0.503133 0.466699
0.508496 0.460097 0.465372
-0.50943 0.489092 0.468556
0.488024 0.532763 0.482576
0.458392 0.451245 -0.502007
0.452692 0.4929 0.48101
0.454668 -0.530225 0.48823
0.488125 0.44843 0.456452
-0.511918 0.46624 0.444647
0.46266 0.4902 0.501985
0.439236 0.465598 -0.474651
0.468594 0.499194 0.49869
0.456877 -0.505127 0.470739
0.506994 0.469593 0.483755
-0.502374 0.45745 0.48433
0.5109 -0.503138 0.518914
0.449157 -0.503749 -0.484033
0.469592 0.558665 -0.496266
0.45814 -0.492842 -0.510682
0.507433 0.445437 -0.444244
-0.494181 0.483591 -0.489369
0.503233 -0.483573 0.469977
0.488675 -0.482398 -0.529031
0.464741 0.515362 -0.484377
0.482128 -0.502248 -0.467323
0.492857 0.49824 -0.444185
-0.544625 0.472624 -0.46172
0.469274 -0.47825 0.515037
0.491787 -0.482469 -0.493663
0.450986 0.518236 -0.407546
0.460607 -0.501307 -0.459437
0.482629 0.498473 -0.506349
-0.539105 0.479516 -0.496851
0.499596 -0.456689 0.507337
0.451536 -0.482309 -0.491264
0.453915 0.525478 -0.472527
0.48963 -0.476689 -0.477631
0.532707 0.432901 -0.439406
-0.496807 0.452869 -0.467668
0.469203 -0.472449 0.480545
0.484245 -0.445723 -0.503809
0.437326 0.493535 -0.451206
0.476354 -0.521304 -0.466558
0.542047 0.455307 -0.441682
-0.474041 0.485277 -0.471936
0.496213 -0.458412 0.495504
0.512673 -0.462187 -0.498096
0.457843 -0.477911 -0.449783
-0.519704 0.483325 -0.464613
0.472062 -0.473083 -0.49633
0.462123 0.523432 -0.409993
0.475296 -0.490208 -0.460885
-0.498278 0.490191 -0.439014
0.472839 -0.438381 0.504067
0.479772 -0.461032 -0.522125
0.479719 0.540505 -0.440077
0.49334 -0.488515 -0.445266
0.526688 0.442349 -0.432276
-0.502083 0.437184 -0.443697
0.487882 -0.420951 0.528459
0.460695 0.536747 -0.475482
0.472938 -0.517324 -0.396768
0.52871 0.461463 -0.48142
-0.496487 0.470792 -0.422041
0.476474 -0.415842 0.493692
0.459829 -0.409091 -0.51894
0.472282 0.482538 -0.411538
0.507635 0.492088 -0.422686
-0.520022 0.459025 -0.437637
0.498528 -0.405739 0.485954
0.44424 -0.405291 -0.473227
0.452424 0.474069 -0.407719
0.511377 0.44219 -0.402803
-0.518673 0.477768 -0.407168
0.4957 -0.37513 0.468784
0.475456 -0.407926 -0.528019
0.466635 0.48301 -0.368136
0.477152 -0.480058 -0.39706
0.523464 0.434823 -0.412306
0.493662 -0.390417 0.510897
0.483916 -0.375255 -0.486514
0.46132 0.506142 -0.406619
0.486918 -0.501009 -0.358826
0.469077 -0.366475 -0.498034
0.465052 0.523384 -0.381921
0.458746 -0.50373 -0.357399
0.497036 0.467885 -0.381423
0.447808 -0.363459 0.539593
0.465295 -0.337672 -0.505314
0.465257 0.520752 -0.344009
0.4786 -0.486321 -0.341369
-0.545712 0.465181 -0.359127
