ply
format ascii 1.0
comment sampling resolution: 0.01
comment noise level: 0.01
comment Created by Open3D
element vertex 1660
property double x
property double y
property double z
end_header
-0.283308 0.452231 0.49487
-0.280653 0.498763 0.453665
-0.269689 0.463018 -0.517358
-0.276074 -0.507102 0.461952
-0.299182 0.46261 0.499205
-0.282313 0.460429 -0.509823
-0.279149 -0.50712 0.465307
0.502228 -0.279309 0.47609
-0.493307 -0.284111 0.464479
-0.287684 0.482572 0.49122
-0.270745 0.481329 -0.493883
-0.287604 -0.503024 0.484919
0.507369 -0.268882 0.476838
-0.489538 -0.298774 0.478841
-0.266996 0.488818 0.489816
-0.277232 0.505043 0.486621
-0.271684 -0.50004 0.483553
0.502393 -0.286684 0.491466
-0.515117 -0.286599 0.490354
-0.260319 0.50136 0.499814
-0.274008 0.48801 -0.512523
-0.260202 0.511082 0.492928
-0.275536 -0.489293 0.512524
0.496702 -0.274803 0.510982
-0.497461 -0.274897 0.485946
-0.258328 -0.504286 0.517189
-0.254087 -0.498337 -0.504895
-0.270409 0.493177 -0.50559
-0.264727 -0.499351 -0.50643
0.512647 -0.265958 -0.500748
-0.492794 -0.276423 -0.509487
-0.286173 -0.500551 0.506114
-0.255961 -0.500603 -0.497974
-0.260823 0.48929 -0.485649
-0.281207 -0.501834 -0.497145
0.50951 -0.274868 -0.489477
-0.495512 -0.283516 -0.492033
-0.274121 -0.473618 -0.507919
-0.251213 0.505956 -0.489199
0.513734 -0.260296 -0.468876
-0.517215 -0.271255 -0.489496
-0.261426 -0.463917 -0.506711
-0.272745 0.488568 -0.472497
0.496508 -0.273605 -0.46859
-0.249275 -0.474497 -0.491248
-0.277372 -0.511716 -0.468219
0.512228 -0.25703 -0.479089
-0.499905 -0.261214 -0.446419
-0.258029 -0.489863 -0.455553
-0.266197 -0.436358 0.501524
-0.271432 0.521207 -0.431551
0.487402 -0.266379 -0.438575
0.505861 -0.266482 -0.436139
-0.2632 -0.410455 -0.503517
-0.268268 0.409001 0.500048
-0.276211 0.498635 0.431664
-0.276466 -0.50162 0.427002
-0.262604 0.422831 -0.48711
-0.278659 0.434949 -0.519568
-0.253592 -0.487054 0.464968
0.503709 -0.261828 0.443639
-0.261693 0.447515 0.50464
-0.286003 0.451082 -0.521744
0.499275 -0.262822 0.454142
-0.499858 -0.262143 0.458608
-0.250226 0.476779 0.489389
-0.27075 0.448373 -0.50099
-0.262329 -0.485655 0.463855
0.49417 -0.270509 0.484848
-0.493164 -0.272633 0.4672
-0.272867 0.484088 0.489033
-0.260234 0.505751 0.488953
-0.262995 -0.511738 0.497584
0.5033 -0.28216 0.464452
-0.502896 -0.256664 0.494039
-0.273296 0.493602 0.503752
-0.270407 0.475096 -0.50367
-0.272429 0.518959 0.487658
0.510421 -0.276823 0.49154
-0.503626 -0.269862 0.497494
-0.257215 0.493035 0.509074
-0.263106 0.510053 -0.492338
-0.268062 0.497156 0.514766
-0.25635 -0.516622 0.506146
0.478421 -0.264878 0.497826
-0.498411 -0.285638 0.498283
-0.247491 -0.491208 0.501329
-0.24179 -0.477053 -0.498893
-0.246139 0.495898 -0.496163
-0.274844 -0.489934 -0.497503
0.496099 -0.242469 -0.499039
-0.516304 -0.255244 -0.495517
-0.238771 -0.478037 0.498404
-0.232824 -0.480784 -0.502492
-0.254687 0.480305 -0.490185
-0.246047 -0.496033 -0.483317
0.502714 -0.254813 -0.486348
-0.517748 -0.260191 -0.497172
-0.256667 -0.498968 0.491397
-0.254064 0.481448 -0.473063
-0.264868 -0.493017 -0.483177
0.503701 -0.26645 -0.463557
-0.491381 -0.275623 -0.491203
-0.258246 0.482045 -0.466328
-0.487103 -0.272622 -0.4754
-0.268246 -0.477796 -0.481839
-0.250484 0.508796 -0.448877
-0.253571 -0.482484 -0.469437
0.494194 -0.258162 -0.458176
-0.493573 -0.27629 -0.471538
-0.251736 -0.428982 0.480903
-0.252575 0.510871 -0.44654
-0.239581 -0.518146 -0.419347
-0.25432 -0.494779 -0.413916
-0.259948 0.497476 0.440496
-0.515115 -0.237575 0.447344
-0.262122 0.445151 -0.509442
-0.252418 -0.498983 0.457856
-0.491196 -0.24792 0.441573
-0.244904 0.46918 -0.500635
-0.248502 0.49946 0.456735
-0.257397 -0.498958 0.465821
0.516109 -0.267898 0.466008
-0.227671 0.464519 0.496788
-0.258012 0.461299 -0.506995
-0.259901 -0.507074 0.478471
0.505964 -0.248763 0.47518
-0.48598 -0.268142 0.456537
-0.25665 0.490704 0.501694
-0.258831 0.490998 -0.496654
-0.253745 0.500159 0.455476
-0.25312 -0.511866 0.490322
0.487646 -0.270676 0.478541
-0.489758 -0.260761 0.487785
-0.275218 0.483633 0.505722
-0.256811 0.478712 -0.507545
-0.262068 0.492181 0.478196
-0.262007 -0.508313 0.495071
0.485229 -0.248744 0.481599
-0.507723 -0.262513 0.476742
-0.262945 0.490115 0.490192
-0.245655 0.503934 -0.485952
-0.26247 0.509161 0.487301
-0.257918 -0.480583 0.499285
0.502045 -0.275946 0.504394
-0.51995 -0.242328 0.480071
-0.229354 -0.515975 0.508298
-0.257171 -0.497816 -0.504733
-0.256708 0.496124 -0.515662
-0.277853 -0.511986 -0.499903
0.511319 -0.254258 -0.510789
-0.509003 -0.254441 -0.506093
-0.246972 -0.485172 0.508786
-0.255126 -0.497564 -0.510526
-0.259584 -0.503428 -0.489091
0.509804 -0.233147 -0.489819
-0.509368 -0.231366 -0.500705
-0.250163 -0.470428 0.51589
-0.245568 -0.478636 -0.502138
-0.239579 0.486582 -0.496056
-0.258209 -0.496567 -0.486795
0.505039 -0.259539 -0.481208
-0.504867 -0.239862 -0.484605
-0.248152 -0.480528 0.49247
-0.234227 -0.468097 -0.499992
-0.265733 0.509569 -0.450892
0.507366 -0.239071 -0.471452
-0.240394 0.50079 -0.438826
-0.250688 -0.516445 -0.449178
0.498066 -0.231714 -0.471362
-0.500549 -0.229062 -0.480365
-0.243566 -0.443917 0.511119
-0.239085 -0.486606 -0.439013
0.4969 -0.233552 -0.456751
-0.247538 -0.441654 0.502152
-0.269502 0.431748 0.501558
-0.23401 0.447563 -0.515872
-0.255514 0.441608 -0.477841
-0.235681 -0.505932 0.454948
0.498481 -0.248764 0.4621
-0.240851 0.490438 0.466634
0.479907 -0.24551 0.439907
-0.244879 0.471924 0.508499
-0.250459 0.512847 0.485226
-0.237996 -0.502439 0.475763
0.516676 -0.24185 0.479779
-0.264933 0.473087 0.505498
-0.242448 0.490768 -0.508228
-0.256912 -0.501686 0.492428
0.488632 -0.22531 0.482308
-0.489401 -0.24821 0.477114
-0.249225 0.512475 0.480663
-0.25049 0.498887 -0.481275
-0.247841 -0.499125 0.487739
0.49347 -0.260655 0.485511
-0.505678 -0.243039 0.486012
-0.250746 0.511474 0.487793
-0.225479 0.50239 -0.495928
-0.247925 0.495257 0.496568
-0.251059 -0.490857 0.499806
0.491035 -0.225192 0.48136
-0.488986 -0.257216 0.48949
-0.244889 -0.505799 0.493065
-0.2285 -0.516442 -0.510652
-0.252112 0.50445 -0.49835
-0.244096 -0.493046 -0.506273
0.50154 -0.243433 -0.509045
-0.490464 -0.237643 -0.505099
-0.251741 -0.505845 -0.505901
-0.244962 0.516875 -0.511584
-0.233788 -0.478892 -0.506913
0.497343 -0.221798 -0.494197
-0.507101 -0.226149 -0.479059
-0.231471 -0.493584 -0.494411
-0.240391 -0.504519 -0.483996
-0.243825 -0.466874 -0.511979
-0.226985 -0.491898 -0.473812
-0.506462 -0.244538 -0.462543
-0.237662 -0.461561 0.501135
-0.246786 0.50228 -0.455559
-0.249702 -0.493659 -0.46372
0.503741 -0.229287 -0.455628
-0.247434 -0.509656 -0.450842
-0.236054 -0.441224 -0.513807
-0.2517 0.520741 -0.466441
-0.246405 -0.42019 0.522841
-0.49033 -0.227764 -0.424206
-0.232513 0.467875 0.519941
-0.242977 -0.502955 0.475106
-0.492424 -0.223913 0.459269
-0.235756 0.498472 0.503938
-0.248771 0.480454 -0.50356
-0.247888 0.500968 0.465124
-0.226188 -0.492548 0.460118
0.48978 -0.241766 0.476943
-0.22396 0.489857 0.480598
-0.244069 0.480595 -0.500178
-0.228833 0.490936 0.488281
-0.248728 -0.507246 0.474119
0.500037 -0.243693 0.46631
-0.503875 -0.229135 0.478951
-0.242293 0.489254 -0.508003
-0.23323 0.511919 0.492302
-0.511768 -0.242819 0.490873
-0.241595 0.491488 0.496259
-0.233267 0.494046 -0.494731
-0.235304 0.502441 0.499558
-0.247455 -0.500858 0.506294
0.507568 -0.236404 0.494562
-0.505564 -0.233606 0.512713
-0.231757 -0.502774 0.504231
-0.240935 -0.494041 -0.493718
-0.228523 0.49779 -0.49365
-0.211791 -0.505977 -0.523724
0.509531 -0.236682 -0.483104
-0.494975 -0.232433 -0.488256
-0.236487 -0.487746 0.479957
-0.220147 -0.48247 -0.500695
-0.212877 0.512776 -0.480589
-0.240313 -0.51186 -0.496005
0.514619 -0.242104 -0.492571
-0.503206 -0.227926 -0.48962
-0.2375 -0.500892 0.495459
-0.242575 0.500843 -0.472842
-0.217086 -0.498165 -0.474932
-0.50584 -0.233169 -0.470088
-0.238652 -0.480819 0.499669
-0.225413 -0.453417 -0.502222
-0.222495 -0.456309 -0.49674
-0.227357 -0.470603 0.494748
-0.245807 -0.44097 -0.515506
0.492205 -0.243817 -0.451508
-0.226864 0.447948 0.495595
-0.244299 0.430149 -0.500934
-0.248493 0.43191 -0.499057
0.511256 -0.228504 0.456158
-0.234008 0.457799 0.497166
-0.202286 -0.500429 0.464904
-0.49239 -0.237972 0.472338
-0.235165 0.462693 -0.495118
0.497302 -0.226421 0.452213
-0.227528 0.482197 0.489894
-0.238867 0.472344 -0.482531
-0.220852 0.498612 0.478531
-0.241245 -0.511784 0.485652
0.520869 -0.211499 0.491544
-0.232906 0.497507 0.502916
-0.234541 0.516022 -0.515146
-0.216425 -0.508626 0.493464
0.50035 -0.223324 0.487925
-0.513164 -0.214322 0.477313
-0.22494 0.512569 0.502212
-0.217757 0.494321 -0.487292
-0.20616 0.488844 0.492702
-0.242185 -0.500969 0.493809
0.506173 -0.227758 0.500215
-0.494287 -0.218143 0.510058
-0.220473 -0.487087 0.500612
-0.226546 -0.473048 -0.50408
-0.243377 0.502527 -0.48458
-0.219956 -0.507536 -0.510381
0.505922 -0.213432 -0.498683
-0.508932 -0.221364 -0.502005
-0.203802 -0.475879 0.500402
-0.20932 -0.470064 -0.51361
-0.224544 0.501088 -0.471761
-0.229787 -0.481317 -0.490465
0.497924 -0.216525 -0.502465
-0.503535 -0.219552 -0.510445
-0.221662 -0.488157 0.512109
-0.217305 -0.49125 -0.48974
-0.196709 0.520494 -0.46794
-0.215199 -0.505406 -0.486892
0.498774 -0.216071 -0.491961
-0.497654 -0.209865 -0.487804
-0.23044 -0.457446 0.493073
-0.217375 0.50475 -0.443966
0.482824 -0.218804 -0.456029
-0.515999 -0.235445 -0.469738
0.494807 -0.230908 -0.451856
-0.211751 0.48417 -0.451165
0.49173 -0.214976 -0.442254
-0.230534 -0.521035 -0.42477
-0.503967 -0.200656 0.422765
-0.214919 0.445732 0.51302
-0.203292 0.517894 0.442584
-0.512903 -0.207071 0.439207
-0.235598 0.447452 -0.490462
-0.209967 -0.505334 0.442433
-0.512884 -0.210515 0.458484
-0.223192 0.476314 0.518194
-0.21527 0.475342 -0.490906
-0.214773 0.499448 0.46787
-0.213623 -0.4939 0.461383
0.505134 -0.20445 0.466357
-0.222689 0.476949 0.498658
-0.225391 0.476219 -0.496629
-0.224782 0.502819 0.490935
-0.239406 -0.500132 0.464746
0.484025 -0.202138 0.486044
-0.501996 -0.209647 0.481733
-0.204324 0.475371 0.495179
-0.216439 0.497681 -0.497263
-0.216901 0.511414 0.49875
-0.222862 -0.502821 0.487743
0.518876 -0.222558 0.511258
-0.221194 0.498448 0.497164
-0.2037 0.511966 -0.501044
-0.216551 0.491879 0.515363
-0.223665 -0.485583 0.506405
0.516543 -0.222262 0.500392
-0.503886 -0.234439 0.483525
-0.216258 -0.498834 0.511143
-0.202492 -0.500993 -0.510031
-0.196265 0.501792 -0.498866
-0.198409 -0.497283 -0.478975
0.511194 -0.204621 -0.517624
-0.504588 -0.213052 -0.51077
-0.205541 -0.495696 0.511198
-0.200528 -0.472137 -0.518317
-0.205109 0.498494 -0.496124
-0.190176 -0.496895 -0.493927
-0.503663 -0.226719 -0.488138
-0.206664 -0.46034 0.474199
-0.216036 -0.475418 -0.495105
-0.195101 0.51154 -0.477307
-0.195915 -0.504262 -0.499084
0.496952 -0.198175 -0.469042
-0.502835 -0.224087 -0.468579
-0.207137 -0.455429 0.494144
-0.212801 -0.466454 -0.498185
-0.492496 -0.21238 -0.467789
-0.20298 -0.469329 -0.48841
-0.208909 0.512484 -0.478111
-0.207649 -0.498767 -0.46113
0.510629 -0.206496 -0.475022
-0.221501 -0.468902 0.502663
-0.199407 0.510037 -0.442083
-0.232626 -0.50938 -0.449647
-0.200556 0.423416 0.497752
-0.207139 0.436678 -0.503782
-0.511867 -0.225577 0.433648
-0.210349 0.459755 0.510097
-0.212526 -0.482452 0.454261
0.501497 -0.209022 0.456829
-0.510801 -0.194429 0.464412
-0.201017 0.502801 0.4458
-0.205333 -0.503816 0.482074
0.4829 -0.214433 0.488404
-0.493517 -0.215118 0.480974
-0.204452 0.471918 -0.498468
-0.212452 0.49402 0.485207
-0.214225 -0.502821 0.468497
0.502341 -0.201981 0.481679
-0.209681 0.473547 0.506656
-0.225621 0.491755 -0.480017
0.51157 -0.193398 0.48552
-0.499565 -0.201697 0.485285
-0.211935 0.505758 0.487479
-0.19915 0.517104 -0.491528
-0.20764 0.49393 0.500159
-0.201944 -0.513609 0.52135
0.522336 -0.20251 0.489748
-0.480481 -0.189721 0.483139
-0.1967 -0.498827 0.481715
-0.200577 -0.477879 -0.479382
-0.191119 0.488029 -0.501433
-0.207667 -0.503822 -0.482121
0.502941 -0.215765 -0.492623
-0.507279 -0.207879 -0.508838
-0.19831 0.497551 -0.484192
0.506252 -0.195146 -0.477011
-0.216167 -0.491356 0.510935
-0.204902 0.496578 -0.485629
-0.191889 -0.495998 -0.475208
0.492197 -0.192586 -0.469061
-0.515542 -0.198805 -0.471112
-0.197751 -0.49498 -0.492551
-0.209113 -0.459392 -0.495505
-0.22291 -0.481416 -0.463842
-0.216118 -0.458733 0.497696
-0.522783 -0.200947 -0.439353
-0.189122 -0.434411 0.490927
-0.185392 0.455785 0.493158
-0.182828 0.471304 0.49563
-0.18771 0.462358 -0.499622
-0.193784 0.506505 0.454764
0.513417 -0.231122 0.47262
-0.196377 0.490362 0.509413
-0.194088 0.491397 -0.49492
-0.209366 0.504606 0.480027
0.498861 -0.190051 0.486959
-0.210463 0.493619 -0.488536
-0.192107 0.509924 0.492985
-0.19141 -0.487636 0.484025
0.483113 -0.203104 0.490081
-0.512159 -0.217469 0.486588
-0.205252 0.503243 0.494315
-0.194639 0.508116 -0.504677
-0.197089 0.499479 0.501982
-0.180288 -0.501328 0.495928
0.506021 -0.200903 0.519316
-0.510555 -0.206108 0.495239
-0.19886 -0.488161 0.486723
-0.196796 -0.500585 -0.509422
-0.186836 0.514228 -0.512703
-0.184297 -0.497344 -0.491972
0.490964 -0.174485 -0.499169
-0.518833 -0.189918 -0.515775
-0.183228 -0.486019 0.506251
-0.190753 -0.499537 -0.502329
-0.186612 0.50054 -0.490387
-0.188187 -0.497365 -0.498322
0.501114 -0.183069 -0.499759
-0.508786 -0.19945 -0.48435
-0.176881 -0.474075 -0.511672
-0.187343 -0.512171 -0.485032
0.497094 -0.174337 -0.477449
-0.184215 -0.462577 0.503154
-0.182349 0.495311 -0.478258
-0.182196 -0.493141 -0.480262
0.51905 -0.196766 -0.49115
-0.183351 -0.460634 0.49216
-0.201378 -0.450883 0.49848
-0.186385 0.499257 -0.446624
-0.496026 -0.181184 -0.425386
0.515024 -0.16746 0.43384
-0.49751 -0.169561 0.454957
-0.186595 0.506082 0.46174
-0.189026 -0.492766 0.462747
0.487143 -0.198715 0.465869
-0.194018 0.49637 0.511721
-0.185255 -0.499733 0.497437
0.509614 -0.17945 0.481042
-0.182622 0.498683 0.51158
-0.199557 0.504624 -0.495982
-0.175358 0.503647 0.48151
-0.186388 -0.494222 0.484777
0.508897 -0.201389 0.474918
-0.498066 -0.183252 0.489315
-0.189059 0.494825 0.516483
-0.177665 0.510528 -0.498765
-0.181971 0.49875 0.477764
-0.194519 -0.479815 0.490419
0.49709 -0.185712 0.494053
-0.50927 -0.188515 0.497095
-0.173465 -0.495477 0.496601
-0.167495 -0.487119 -0.505691
-0.171456 0.49638 -0.496752
-0.174921 -0.507126 -0.511078
0.477072 -0.173876 -0.520979
-0.504986 -0.181076 -0.49709
-0.183608 -0.500052 0.506209
-0.183601 -0.496211 -0.491123
-0.172787 0.499491 -0.471613
0.498978 -0.184673 -0.485274
-0.493051 -0.181865 -0.481903
-0.167938 -0.478257 0.487968
-0.184616 -0.479873 -0.501363
-0.180674 0.505022 -0.478347
-0.173733 -0.48585 -0.486
0.505003 -0.167211 -0.489312
-0.490467 -0.167612 -0.47552
-0.181994 -0.472587 -0.510289
0.493577 -0.180204 -0.460573
-0.18078 0.49759 -0.464383
-0.185528 -0.489541 -0.453837
-0.196163 0.509194 0.444092
-0.180927 0.443709 -0.489532
-0.507387 -0.175159 0.442666
-0.183213 0.482281 0.516631
-0.16854 0.492682 0.462063
-0.186041 0.482274 0.491192
-0.151659 0.472958 -0.516146
-0.175488 0.492439 0.482724
-0.159424 -0.510909 0.470054
0.500292 -0.183292 0.490393
-0.177732 0.484283 0.498419
-0.174556 0.470483 -0.511383
-0.197902 0.491816 0.480022
-0.17072 0.492946 -0.479306
-0.17713 0.500854 0.483927
0.506292 -0.175805 0.487693
-0.503614 -0.182112 0.487925
-0.174266 0.507001 0.489731
-0.175629 0.497735 -0.514969
-0.189018 0.515897 0.492549
-0.188801 -0.494181 0.480266
0.498405 -0.18189 0.489266
-0.495978 -0.180726 0.495282
-0.170653 -0.502979 0.513552
-0.159879 -0.49551 -0.496974
-0.174656 0.525811 -0.521898
-0.154185 -0.51569 -0.491361
0.507956 -0.15774 -0.503853
-0.502571 -0.172372 -0.480152
-0.154301 -0.501804 0.519465
-0.163772 0.48025 -0.488238
-0.155899 -0.494359 -0.48589
0.501617 -0.168851 -0.482239
-0.518222 -0.149019 -0.488642
-0.154357 -0.483453 0.502643
0.500949 -0.160611 -0.479214
-0.494894 -0.179616 -0.468835
-0.167159 0.513822 -0.458003
-0.170941 -0.477507 -0.498729
0.49456 -0.162832 -0.454378
-0.153504 -0.444976 -0.4841
-0.489086 -0.191453 -0.465023
-0.187205 0.43439 0.500635
-0.166141 0.451146 -0.485424
-0.150177 0.443597 -0.505166
-0.176587 0.502071 0.467669
-0.16776 -0.493099 0.467173
0.505658 -0.164514 0.454785
-0.166041 0.460233 0.497158
-0.176431 0.470607 -0.498822
-0.153786 -0.507642 0.462352
0.498926 -0.152947 0.475097
-0.49412 -0.166465 0.473915
-0.169797 0.472175 0.502483
-0.181538 0.469447 -0.512638
-0.170909 0.495843 0.476304
0.498947 -0.180389 0.490804
-0.497412 -0.160584 0.47517
-0.179299 0.489736 0.494908
-0.146484 0.487792 -0.503416
-0.169215 -0.509562 0.475326
0.492658 -0.180354 0.486188
-0.49349 -0.152611 0.481023
-0.170848 0.492717 0.51397
-0.170663 0.497591 -0.51356
-0.189887 0.482348 0.504801
-0.169764 -0.514418 0.509419
0.503463 -0.160842 0.498731
-0.503984 -0.172733 0.493549
-0.146786 -0.516076 0.499774
-0.171857 -0.497799 -0.466525
-0.167033 0.497307 -0.513846
-0.170887 -0.490812 -0.500024
0.498868 -0.162487 -0.51661
-0.498597 -0.156668 -0.508618
-0.162263 -0.494922 0.513525
-0.16878 -0.482485 -0.494678
-0.149611 0.486046 -0.496793
-0.170535 -0.50621 -0.489986
0.512957 -0.16533 -0.496154
-0.13468 -0.475604 -0.499464
-0.151473 -0.499258 -0.458981
0.50668 -0.149913 -0.481751
-0.506397 -0.167917 -0.489523
-0.163694 0.502548 -0.467526
0.499834 -0.146645 -0.477902
-0.179828 -0.469712 0.504089
0.500533 -0.153485 -0.471961
-0.509893 -0.143207 -0.441674
-0.153866 0.503133 0.4656
-0.149758 -0.506647 0.451031
-0.495658 -0.167054 0.440323
-0.148199 0.462847 0.496705
-0.154527 0.476891 -0.498974
-0.150269 0.496288 0.490552
-0.175658 -0.496756 0.462921
0.494211 -0.139031 0.465123
-0.158943 0.477431 0.494448
-0.157315 0.494219 0.494509
-0.166317 -0.517553 0.475677
-0.494423 -0.160994 0.486151
-0.162175 0.494359 0.51073
-0.170508 0.483341 -0.502796
-0.157938 0.505591 0.490252
-0.149057 -0.507238 0.490195
0.490869 -0.174432 0.503777
-0.501833 -0.167494 0.479605
-0.153657 0.50958 0.499841
-0.165134 0.519329 -0.497406
-0.164112 0.500706 0.473828
-0.151334 -0.495256 0.518972
0.505581 -0.16226 0.485441
-0.511147 -0.150928 0.500154
-0.144339 -0.502487 0.504301
-0.143577 -0.491357 -0.503265
-0.143961 0.509935 -0.484101
-0.140158 -0.495148 -0.499498
0.513479 -0.159925 -0.507132
-0.494785 -0.143057 -0.513086
-0.138498 -0.482604 0.515976
-0.146201 -0.488954 -0.505084
-0.138919 -0.515645 -0.485744
-0.500352 -0.15495 -0.498147
-0.137486 -0.470606 0.49403
-0.152209 -0.466385 -0.481684
-0.146273 -0.480195 -0.477674
0.489676 -0.173997 -0.467526
-0.507411 -0.148858 -0.495453
-0.160332 -0.511387 -0.465917
0.504945 -0.172969 -0.47007
0.48109 -0.155702 -0.465582
-0.498173 -0.124579 -0.469701
-0.133 0.473429 0.492291
-0.139648 0.46544 -0.50629
-0.134815 -0.483638 0.469498
0.483829 -0.157266 0.469039
-0.116132 0.477979 0.513869
-0.143314 0.477278 -0.502612
-0.144167 -0.479035 0.480892
-0.493352 -0.145698 0.486731
-0.161096 0.486381 0.491755
-0.148805 0.499793 -0.50137
-0.148536 0.496574 0.476462
-0.149678 -0.466192 0.483674
0.495848 -0.13239 0.507797
-0.503686 -0.151321 0.50161
-0.14116 0.504991 0.490881
-0.145572 0.523722 -0.508656
-0.15495 0.486373 0.495453
-0.173708 -0.504904 0.511965
0.511694 -0.149988 0.487132
-0.500565 -0.171052 0.493654
-0.130822 -0.499329 0.497502
-0.135477 -0.493737 -0.498109
-0.101064 0.494676 -0.492556
-0.13089 -0.507422 -0.49997
0.507739 -0.133164 -0.494622
-0.487873 -0.133599 -0.47614
-0.129372 -0.495241 0.496557
-0.142097 -0.496137 -0.491283
-0.123524 0.512116 -0.490711
-0.158568 -0.500961 -0.492061
0.507455 -0.115671 -0.490054
-0.135544 -0.48817 0.494983
0.497312 -0.144019 -0.48312
0.505969 -0.133387 -0.444667
-0.496944 -0.129168 -0.477983
-0.131777 -0.459503 0.496723
0.494636 -0.127604 -0.449078
-0.14356 0.454109 0.504962
0.496216 -0.1302 0.463755
-0.119457 0.468575 -0.49532
-0.134242 -0.510891 0.466763
0.5028 -0.138383 0.469889
-0.504067 -0.159472 0.481963
-0.127574 0.484627 0.497281
-0.143755 0.496817 0.489437
-0.130696 -0.485345 0.472178
0.496586 -0.126398 0.476125
-0.120205 0.494719 -0.486676
-0.14748 0.510747 0.49674
-0.489026 -0.139025 0.500094
-0.122444 0.484401 0.469699
-0.136585 0.506115 -0.501359
-0.122681 0.509853 0.506292
-0.140996 -0.494067 0.517334
0.508744 -0.148363 0.515773
-0.488775 -0.150382 0.508269
-0.141735 -0.50213 0.506217
-0.124084 -0.505996 -0.478429
-0.122586 0.478519 -0.502355
-0.126801 -0.494541 -0.517788
0.468691 -0.121369 -0.506028
-0.489383 -0.121036 -0.498079
-0.119306 -0.496356 0.506016
-0.117101 0.49527 -0.485381
-0.133855 -0.493296 -0.486161
0.500179 -0.118516 -0.48023
-0.486571 -0.129064 -0.479787
-0.102991 0.516803 -0.483953
0.509374 -0.125489 -0.470918
-0.476002 -0.141852 -0.502202
-0.122214 -0.475126 0.493307
-0.136582 -0.47032 -0.511343
-0.113696 0.458168 0.513554
-0.129394 0.501859 0.444833
0.491727 -0.119397 0.448782
-0.129882 0.458557 0.500123
-0.132987 0.46303 -0.487397
-0.109503 -0.502992 0.475258
0.505488 -0.139467 0.462384
-0.500782 -0.100779 0.469767
-0.111146 0.476788 0.511585
-0.124446 0.47805 -0.510288
-0.132524 -0.504349 0.477797
0.505933 -0.123242 0.49895
-0.512441 -0.140958 0.476872
-0.125734 0.503248 0.49905
-0.129915 0.49816 -0.484429
-0.109852 0.507442 0.488318
-0.126243 -0.497318 0.47631
0.499844 -0.118177 0.491261
-0.505862 -0.135843 0.497327
-0.135272 0.479452 0.496541
-0.134127 0.488569 -0.485828
-0.134707 0.506435 0.494237
-0.143535 -0.517622 0.513181
0.510956 -0.118509 0.486262
-0.510166 -0.117998 0.513008
-0.117792 -0.507067 0.488074
-0.123794 -0.495314 -0.489876
-0.128474 0.486413 -0.507779
-0.135788 -0.496022 -0.513274
0.502224 -0.120635 -0.495645
-0.486089 -0.102183 -0.511622
-0.118333 -0.490766 0.504295
-0.0967686 -0.482495 -0.491319
-0.104406 0.510744 -0.480051
-0.0916076 -0.48978 -0.488547
0.515647 -0.101449 -0.482453
-0.118262 -0.476167 0.495368
-0.118249 -0.492159 -0.513501
-0.121716 0.498561 -0.478126
-0.13581 -0.510172 -0.496476
-0.120121 -0.471368 0.516454
-0.106019 -0.451375 -0.497918
0.496306 -0.122653 -0.479313
-0.10151 -0.465638 -0.494133
-0.0870757 -0.488978 -0.461358
-0.123976 -0.445149 0.509201
-0.105497 -0.492377 -0.451095
0.494916 -0.115442 -0.439395
-0.105794 0.442605 -0.483631
-0.119857 -0.511319 0.445856
-0.122823 0.451922 -0.51276
-0.130385 -0.508153 0.472617
0.508624 -0.107377 0.47401
-0.119435 0.485517 0.509386
-0.104261 0.476602 -0.492531
0.502428 -0.113979 0.478255
-0.125707 0.478616 0.502785
-0.0915521 0.494057 -0.482682
-0.0987478 0.498033 0.499623
0.49867 -0.123928 0.492639
-0.504934 -0.117185 0.483455
-0.11823 0.495077 0.507175
-0.123886 0.505523 -0.491624
-0.111965 0.507445 0.508269
-0.0976779 -0.49965 0.500559
0.488297 -0.125522 0.48569
-0.500009 -0.127998 0.485876
-0.111331 -0.488539 0.496482
-0.107047 -0.507234 -0.481068
-0.0931946 0.505073 -0.51255
-0.101327 -0.504152 -0.504916
0.502699 -0.123629 -0.503693
-0.49462 -0.102434 -0.517919
-0.112798 -0.4949 0.499867
-0.103973 -0.477185 -0.502811
-0.110644 0.504735 -0.493084
-0.130175 -0.49403 -0.490158
-0.500372 -0.0905164 -0.49354
-0.102095 0.510372 -0.462362
0.482836 -0.113186 -0.483489
-0.50517 -0.114604 -0.475515
-0.106426 -0.474573 0.504971
-0.0937598 -0.452143 -0.497444
-0.123856 0.505031 -0.465388
0.498698 -0.0996846 -0.470719
-0.107744 -0.468225 0.488217
-0.107425 -0.452572 -0.510753
-0.116689 0.502398 -0.45542
-0.118793 -0.489099 0.451748
-0.096099 0.471368 0.5081
-0.108088 0.472362 -0.506751
-0.107853 -0.503319 0.466006
0.51516 -0.106482 0.477764
-0.502895 -0.100847 0.45618
-0.126245 0.492683 0.492935
-0.108159 -0.51056 0.472099
0.516603 -0.112384 0.468184
-0.104993 0.4689 -0.50487
-0.0978855 0.503336 0.496287
-0.107575 -0.517374 0.477681
0.488244 -0.100643 0.487505
-0.506693 -0.117438 0.492326
-0.11453 0.505102 0.51171
-0.125475 0.503155 -0.506274
-0.116308 0.503006 0.501539
-0.0944363 -0.499198 0.496843
0.514405 -0.101218 0.498798
-0.513138 -0.114927 0.49655
-0.105673 -0.475945 0.496463
-0.096691 -0.48934 -0.490918
-0.0792311 0.50655 -0.497235
-0.101462 -0.497964 -0.524177
0.489641 -0.090146 -0.510349
-0.50688 -0.0798083 -0.49136
-0.086721 -0.507138 0.497625
-0.0985491 -0.482128 -0.49577
-0.106535 -0.483545 -0.497964
0.496828 -0.100525 -0.494197
-0.497215 -0.108154 -0.495623
-0.104961 -0.48719 0.49151
-0.109609 0.500316 -0.482304
0.49005 -0.108088 -0.489971
-0.502039 -0.102867 -0.489557
-0.102354 -0.473143 -0.486578
-0.50338 -0.10695 -0.473696
-0.489653 -0.106088 -0.47114
0.48001 -0.0707501 0.462996
-0.0880977 0.461897 0.521809
-0.0883716 0.49625 0.48104
-0.501563 -0.100387 0.454364
-0.098981 0.507218 0.486357
-0.100785 0.497795 -0.500505
-0.110499 0.516543 0.487035
-0.0979967 -0.497484 0.503114
0.493075 -0.0974844 0.482213
-0.501285 -0.106295 0.49004
-0.10216 0.505045 0.494156
-0.0983155 0.498962 -0.509017
-0.0915091 0.49252 0.49808
-0.101528 -0.503488 0.511884
0.503404 -0.104409 0.48805
-0.508694 -0.101251 0.500198
-0.0858995 -0.490982 0.501737
-0.0723474 -0.498406 -0.508305
-0.0787669 0.503211 -0.496322
-0.0888531 -0.499125 -0.531732
0.48484 -0.0726207 -0.514279
-0.506724 -0.0886398 -0.519878
-0.0870326 -0.491188 -0.485434
-0.0852424 -0.497293 -0.493495
0.519515 -0.0923687 -0.500955
-0.0755438 -0.482077 0.495954
-0.0988442 -0.49299 -0.507247
0.508082 -0.07698 -0.467835
-0.501518 -0.0770507 -0.469372
-0.0815399 -0.464494 0.502263
0.488182 -0.101461 -0.470853
-0.0711205 0.462099 0.489827
-0.110045 0.469113 -0.507583
0.499355 -0.0764903 0.452449
-0.089583 0.467282 -0.501356
-0.103548 0.49627 0.465619
-0.501334 -0.108614 0.471689
-0.101805 0.483771 0.492119
-0.10385 0.480125 -0.5034
-0.0901707 0.502164 0.475484
-0.0859765 -0.501386 0.470408
0.494382 -0.0808853 0.482336
-0.0889263 0.494013 0.499965
-0.0759713 0.492831 -0.491628
-0.0749663 0.482896 0.511384
-0.0858271 -0.514595 0.477955
0.497822 -0.0942049 0.488647
-0.521966 -0.0819923 0.489934
-0.0836714 0.492198 0.496817
-0.094685 0.493299 -0.501818
-0.0958663 0.509913 0.489705
-0.106545 -0.488883 0.498602
0.492293 -0.0964545 0.506515
-0.506705 -0.0859247 0.503535
-0.0709242 -0.501355 0.487867
-0.072473 -0.515302 -0.495695
-0.0779986 0.485084 -0.517038
-0.0857506 -0.512653 -0.474779
0.514069 -0.0708815 -0.500701
-0.499819 -0.0767895 -0.507836
-0.0897696 -0.485862 0.493132
-0.0815807 -0.505515 -0.522476
-0.0851691 0.502355 -0.460884
-0.0618396 -0.500482 -0.479867
0.49897 -0.0879266 -0.501415
-0.494593 -0.0805722 -0.505445
-0.082689 -0.473916 0.491413
-0.0683584 0.497132 -0.500308
-0.0697799 -0.487322 -0.476519
-0.50975 -0.0857919 -0.462392
-0.0741472 -0.447178 0.513184
-0.0800043 -0.451355 -0.489293
-0.0617312 0.485474 -0.473622
-0.057963 -0.506023 -0.464232
-0.512181 -0.0766537 -0.460518
0.48435 -0.0658397 -0.455786
-0.0730767 0.47057 0.501256
-0.0785925 0.495362 0.445642
0.485614 -0.0734885 0.46267
-0.104203 -0.489348 0.47344
0.542169 -0.0612527 0.467747
-0.0870367 0.488821 0.513501
-0.0947897 0.467362 -0.497858
-0.0838811 0.495245 0.460885
-0.085644 -0.503012 0.487964
-0.0770177 0.512861 0.49105
-0.0568254 0.497139 -0.50321
-0.0769965 -0.488543 0.514755
0.497913 -0.0722946 0.484164
-0.506826 -0.0691657 0.472817
-0.0635176 0.510476 0.505485
-0.069378 0.509024 -0.501904
-0.0878901 0.525347 0.504719
-0.0860796 -0.493572 0.516647
0.504407 -0.0886106 0.502799
-0.49765 -0.0746465 0.490424
-0.0696772 -0.501397 0.504264
-0.0708636 -0.492883 -0.502136
-0.0543169 0.504005 -0.522223
-0.0733768 -0.510338 -0.496602
0.492216 -0.0553352 -0.508769
-0.501467 -0.0686864 -0.500117
-0.0740498 -0.503899 0.506207
-0.0800516 -0.50732 -0.506468
-0.0626776 0.505847 -0.478829
-0.0568363 -0.507506 -0.482975
0.491707 -0.0648405 -0.484178
-0.513006 -0.0570595 -0.481295
-0.0806634 -0.473802 0.500692
0.498995 -0.0640835 -0.483274
-0.0530964 -0.470077 0.502006
-0.495531 -0.0610586 -0.479896
-0.0480763 0.453527 0.511759
-0.0766544 0.493108 0.478215
-0.0642906 -0.510102 0.46333
-0.496923 -0.078366 0.490102
-0.0514044 0.480651 0.494287
-0.0641271 0.477302 -0.496028
-0.0852426 0.500244 0.488641
-0.0797381 -0.497203 0.480241
0.509569 -0.0743642 0.495626
-0.512558 -0.0600426 0.483704
-0.049753 0.491101 0.499353
-0.0588058 0.476273 -0.503771
-0.0581879 0.497043 0.4852
-0.0856217 -0.484379 0.492531
0.496181 -0.0364122 0.48163
-0.509938 -0.0760896 0.501983
-0.0496294 -0.49812 0.504976
-0.0609312 -0.490074 -0.50169
-0.056817 0.497624 -0.508648
-0.0462803 -0.498854 -0.501691
0.505137 -0.0504565 -0.518762
-0.508793 -0.0511686 -0.511058
-0.0411854 -0.490942 0.502897
-0.0495873 0.503398 -0.499439
-0.0608972 -0.491511 -0.493667
0.500128 -0.0728103 -0.495179
-0.0623704 -0.47909 -0.501132
-0.0521325 0.500235 -0.474184
-0.501298 -0.0551639 -0.499733
0.505534 -0.0561706 -0.481896
-0.070086 -0.465702 0.503669
-0.0452635 -0.494227 0.464436
-0.494455 -0.0538385 0.447676
0.493144 -0.0488254 0.4683
-0.0529431 0.493821 0.466568
-0.0556797 -0.510689 0.474248
-0.053997 0.491618 0.484784
-0.0691126 0.481328 -0.50125
-0.0391753 0.497563 0.493837
0.497565 -0.0580794 0.505295
-0.0785193 0.498474 0.496411
-0.0632743 0.494098 -0.486236
-0.059853 0.495882 0.498031
-0.0613494 -0.513051 0.503249
0.486494 -0.0583657 0.495621
-0.497819 -0.0547077 0.486886
-0.0462056 -0.506549 0.48727
-0.0671791 -0.504053 -0.476628
-0.0417122 0.496463 -0.498962
-0.0433107 -0.484576 -0.498967
0.502738 -0.0546196 -0.518582
-0.506321 -0.0421483 -0.502677
-0.0363998 -0.476341 0.462701
-0.047993 -0.494659 -0.496928
-0.0460906 0.516423 -0.494747
-0.0403897 -0.505363 -0.473972
0.503565 -0.0611066 -0.482531
-0.0251523 -0.463096 0.490956
-0.0506358 -0.504912 -0.487737
-0.484331 -0.047598 -0.48666
-0.0580844 -0.459307 0.495094
-0.04611 0.454916 0.489208
-0.0337973 -0.491636 0.464892
0.506016 -0.0415829 0.444365
-0.499082 -0.0447942 0.474901
-0.0520311 0.474869 0.494201
-0.0414614 0.495641 0.485578
-0.489649 -0.0300862 0.477529
-0.0452158 0.493067 0.503604
-0.069487 0.489238 -0.504862
-0.0350598 -0.507086 0.491725
0.501493 -0.0482669 0.484631
-0.500399 -0.0513191 0.497448
-0.054489 0.503257 0.490162
-0.0662834 0.504396 -0.498349
-0.0278683 0.49974 0.506125
-0.0302762 -0.478072 0.509684
0.5073 -0.0300452 0.494689
-0.498869 -0.0426374 0.502987
-0.0435848 -0.512514 0.490447
-0.0212645 -0.477218 -0.490142
-0.047336 0.48411 -0.495889
-0.0488516 -0.509901 -0.505777
0.505802 -0.0378167 -0.517858
-0.491059 -0.0264741 -0.490126
-0.0276264 -0.494153 -0.488631
0.46993 -0.0381125 -0.490943
-0.507905 -0.0281098 -0.49797
-0.0220502 -0.473619 0.485728
-0.0246963 -0.487952 -0.474656
0.512099 -0.0314978 -0.473465
-0.514142 -0.0406697 -0.480486
-0.0181175 0.468623 0.506695
-0.0503603 0.487576 0.504568
-0.0417603 0.465234 -0.496165
-0.0319448 0.509329 0.48383
-0.0367328 -0.489679 0.489245
0.50209 -0.0280016 0.467339
-0.0270177 0.489467 0.514957
-0.0434591 0.485638 -0.489271
-0.0162093 0.499407 0.492178
-0.0459918 -0.505855 0.494692
0.500284 -0.0324381 0.49375
-0.0441362 0.507206 0.494749
-0.041348 0.496906 -0.501026
-0.0307582 0.503611 0.480598
-0.0323173 -0.500912 0.521384
0.496745 -0.0488741 0.509128
-0.506839 -0.0525549 0.502934
-0.0233395 -0.50675 0.485646
-0.0307571 -0.505852 -0.506004
-0.0356249 0.498297 -0.499221
-0.0177936 -0.504654 -0.502461
0.501462 -0.0200297 -0.4893
-0.505299 -0.0361425 -0.485853
-0.0132217 -0.484364 -0.502931
0.511348 -0.0263591 -0.484359
-0.487975 -0.021299 -0.499131
-0.0239738 -0.473102 0.495407
-0.0158413 -0.482829 -0.511032
-0.0175595 0.51196 -0.455935
-0.490911 -0.0183155 -0.476697
-0.0299467 -0.463664 0.506905
-0.0284539 -0.480852 -0.496309
-0.0208421 0.50333 0.461067
-0.00929051 0.451314 -0.49817
-0.0378794 0.49226 -0.509573
-0.0329975 0.484556 0.49506
-0.488033 -0.0274644 0.488661
-0.021066 0.484129 0.497333
-0.0205523 0.502764 0.472524
-0.0130069 -0.492054 0.487392
-0.48935 -0.0218875 0.479354
-0.0376738 0.499561 0.490511
-0.025691 0.516656 -0.495995
-0.0114898 0.511674 0.495816
-0.0199259 -0.486515 0.495875
0.479364 -0.0282773 0.507173
-0.496635 -0.0392476 0.50869
-0.00170747 -0.49445 0.514912
-0.0170823 -0.501527 -0.493063
-0.000270113 0.501547 -0.501305
-0.00975233 -0.499298 -0.491518
0.501049 -0.0264353 -0.511361
-0.487245 -0.0254673 -0.493281
-0.0182067 -0.520789 0.503795
-0.0193687 -0.488919 -0.492003
-0.0043777 0.505737 -0.497172
-0.49562 -0.0282983 -0.497756
-0.0124432 -0.481264 0.494099
-0.0197303 0.498342 -0.488983
-0.0135347 0.501353 -0.48053
0.498218 -0.0227925 -0.48395
-0.481162 -0.00847612 -0.483446
-0.0167716 -0.455371 -0.492951
0.00231152 0.464965 0.497262
0.490018 -0.00240859 0.456987
-0.498658 -0.0350558 0.467032
-0.0226484 0.501019 0.474626
-0.00678616 -0.48363 0.46413
-0.0246331 0.491338 0.500856
-0.00973268 0.483196 -0.481762
-0.0259203 0.506495 0.496705
-0.0138989 -0.507681 0.481391
0.495754 -0.0239054 0.477305
-0.477058 -0.00949488 0.480394
-0.00116996 0.502713 0.497348
-0.0169692 0.492589 -0.508108
-0.00600781 0.491708 0.49775
-0.0222143 -0.522588 0.508783
0.488598 -0.0128869 0.518522
-0.494919 -0.0119354 0.51189
0.0116531 -0.493986 0.498351
-0.00647579 -0.494251 -0.499392
-0.011596 0.48685 -0.510734
-0.00924341 -0.506675 -0.499364
0.485377 -0.00377389 -0.507148
-0.494372 -0.00928675 -0.503106
-0.00743482 -0.494509 0.515697
-0.00806611 -0.48118 -0.499095
-0.0121894 0.499079 -0.504265
-0.488926 -0.00366974 -0.482862
-0.0104413 -0.473618 0.499326
-0.00483156 -0.491047 -0.506356
-0.00314706 0.507389 -0.47204
0.0109732 -0.497219 -0.475534
-0.504635 -0.0133867 -0.471736
0.0077125 -0.493263 -0.464233
0.50313 -0.000571109 -0.455579
0.00806941 0.462832 -0.500867
-0.0129189 0.501614 0.478445
0.0113125 -0.500203 0.483738
0.509676 0.00253576 0.476385
-0.00821611 0.489147 0.495746
-0.000432481 0.48536 -0.496081
-0.0126196 0.512284 0.47597
0.00211271 -0.503628 0.495942
0.489172 -0.0121138 0.465969
-0.517807 -0.0101553 0.478162
-0.00511516 0.506558 0.495127
0.0102863 0.494904 -0.501454
-0.0115426 0.497277 0.498089
-0.0132586 -0.495697 0.495959
0.514968 -0.00496639 0.505007
-0.492201 -0.000427907 0.522573
0.00324573 -0.500691 0.503612
0.00340643 -0.508404 -0.498049
0.0133486 0.491695 -0.498702
0.00442458 -0.467405 -0.532177
0.508171 0.00867864 -0.515907
-0.51776 0.0150116 -0.498761
0.00783395 -0.491477 -0.496204
0.0179414 0.495812 -0.480576
0.0226414 -0.492037 -0.501663
-0.519429 0.0109944 -0.485058
0.0160887 -0.494001 0.510018
0.0165694 -0.505526 -0.496153
-0.498166 -0.013465 -0.469905
0.000883214 -0.504253 -0.471834
-0.508053 -0.000509969 -0.456539
-0.00278316 -0.496233 -0.472861
-0.492047 -0.00155619 0.484033
0.00410865 0.48926 0.469545
0.0209489 -0.508995 0.479146
0.509065 0.0111681 0.475961
0.0143601 0.49933 0.526211
0.0210111 0.473814 -0.50427
0.0126047 0.497917 0.47193
-0.0088427 -0.497236 0.469799
0.491593 -0.0111577 0.477794
-0.487792 0.00557957 0.485073
-0.00683274 0.491204 0.496488
0.00879061 0.490366 -0.488086
0.00631272 0.50938 0.493411
0.0149434 -0.494513 0.509471
0.494893 0.0225123 0.498518
-0.497626 0.00540812 0.494855
0.013198 -0.495007 0.503761
0.0140662 -0.499081 -0.50295
0.0163464 0.483921 -0.482681
-0.00387569 -0.5136 -0.489862
0.51408 0.000539885 -0.497446
-0.508277 0.0212828 -0.507913
0.008883 -0.485364 0.465288
0.00163046 -0.471638 -0.494712
0.00858394 0.508182 -0.492119
-0.50434 0.0239077 -0.500647
0.000427573 0.500843 -0.489652
0.0137854 -0.505696 -0.480146
-0.501619 0.00337475 -0.480825
0.00693586 -0.473809 -0.497962
0.0176568 0.499287 -0.448772
-0.494999 0.0214645 -0.446285
0.0132492 0.507505 -0.451896
0.0155648 0.477066 -0.51677
0.0116848 0.505226 0.465002
0.496202 0.0160765 0.452374
0.0213573 0.48737 -0.522513
0.0257874 0.501515 0.483083
-0.508473 0.0123051 0.478911
0.00846368 0.485017 0.503239
0.00477344 0.496862 -0.504455
0.0140457 0.49179 0.4851
0.0102593 0.502212 0.504886
0.00184234 0.502306 -0.501355
0.0138488 0.487042 0.498792
0.0204851 -0.512317 0.493705
0.50307 0.0144849 0.492677
-0.506309 0.00580138 0.481429
0.0284234 -0.482003 0.504142
0.0405181 -0.499143 -0.511962
0.0319959 0.490486 -0.497176
0.0135216 -0.518824 -0.50808
0.506219 0.00248904 -0.498725
-0.476203 0.0169577 -0.505156
0.032595 -0.491552 0.498873
0.0480701 -0.499299 -0.509773
0.0113278 0.490205 -0.50925
0.0161654 -0.497098 -0.494365
0.487238 0.0402632 -0.482904
-0.506523 0.0305306 -0.505022
0.0242743 -0.483158 -0.503772
0.0222336 0.500997 -0.484385
0.494384 0.018336 -0.486923
-0.501092 0.00530374 -0.48502
0.0216151 -0.47866 0.493995
0.0238321 -0.481672 -0.479403
0.0216403 0.46036 0.503575
0.0107489 0.487302 0.505627
0.0131803 0.485864 -0.499654
0.0324185 0.486863 0.473018
0.499036 0.0273922 0.467004
0.0304908 0.507356 0.489429
0.00552929 0.474926 -0.494863
0.0241185 0.492298 0.497585
0.0144582 -0.493978 0.48182
0.499025 0.0248214 0.506089
0.0213789 0.497268 0.514781
0.0289276 0.500531 -0.510472
0.0373598 0.493255 0.492533
0.0197657 -0.503435 0.497795
0.49674 0.0200488 0.502495
-0.528753 0.0229474 0.485711
0.0415118 -0.5062 0.488404
0.0494665 -0.51134 -0.502079
0.0408637 0.518537 -0.5094
0.0499998 -0.498937 -0.506074
0.51122 0.0372953 -0.499196
-0.493033 0.0292113 -0.497745
0.0391006 -0.4888 -0.5038
0.0284957 0.493752 -0.488829
0.0406893 -0.518987 -0.488417
0.490678 0.0224944 -0.479347
0.0337274 -0.481276 0.496371
0.0350531 0.50477 -0.482662
0.519769 0.0416893 -0.487698
-0.50202 0.0459512 -0.473444
0.0337657 -0.462466 0.48509
0.0589115 -0.474347 -0.506939
0.0459083 -0.496329 -0.455868
-0.514435 0.0480357 -0.482565
0.015393 -0.490295 0.45122
0.512035 0.0473442 0.477671
0.0390984 0.508925 0.479254
0.0374909 -0.478424 0.482601
-0.51111 0.0568348 0.488755
0.0319759 0.480959 0.515204
0.0387405 0.478464 -0.493206
0.0131318 0.499244 0.501444
0.497067 0.0385252 0.497201
-0.51208 0.0411443 0.484844
0.0316993 0.503449 0.501384
0.0284283 0.507471 -0.499498
0.0392904 0.499668 0.503453
0.0323737 -0.510501 0.51855
0.49715 0.0383134 0.509141
-0.498737 0.0173454 0.493465
0.053101 -0.504813 0.498542
0.0507253 -0.490538 -0.513666
0.0442223 0.488938 -0.497077
0.0598475 -0.496072 -0.514003
0.503338 0.0420555 -0.502192
-0.507047 0.0442818 -0.507451
0.0358346 -0.495599 0.513448
0.0486835 -0.491782 -0.500994
0.469888 0.047509 -0.491684
-0.493671 0.0540475 -0.478537
0.0482951 -0.487581 0.504874
0.0632523 -0.468898 -0.510624
0.0636835 -0.518524 -0.468812
-0.520889 0.0289909 -0.471292
0.0309036 -0.473356 -0.499732
0.0408816 0.484977 -0.447424
0.0613903 -0.511919 -0.475116
0.497881 0.0319688 -0.464864
0.0578235 0.491039 -0.47053
0.0555508 -0.50302 -0.481278
0.0500521 0.459612 0.510508
0.503283 0.0390379 0.469367
-0.506018 0.0337435 0.476959
0.0558797 0.504347 -0.499623
0.0369141 0.491071 0.466371
-0.500143 0.0556358 0.485178
0.0447746 0.488755 0.491369
0.0322302 0.482588 -0.505061
0.512328 0.0389173 0.493376
0.0413837 0.502402 0.488098
0.0622337 0.516795 -0.4861
0.0412127 0.489678 0.509316
0.0461834 -0.49733 0.492709
0.488969 0.0578467 0.498792
-0.503997 0.0452804 0.504848
0.0744959 -0.488443 0.47948
0.0615241 -0.509429 -0.491759
0.0450517 0.499374 -0.504569
0.0655201 -0.502179 -0.498358
0.515998 0.0599053 -0.518408
-0.508409 0.0688146 -0.512601
0.0570749 -0.497972 0.513513
0.0661313 -0.496443 -0.502633
0.0568889 0.49052 -0.490772
0.505757 0.0480748 -0.476631
-0.505697 0.0550884 -0.508111
0.0476029 -0.482662 0.497918
0.054686 0.492876 -0.508908
0.0520574 -0.498214 -0.49613
0.503861 0.0590687 -0.500181
0.0516969 -0.518106 -0.47626
0.501516 0.0512411 -0.458562
0.0429637 -0.453972 -0.500196
0.499448 0.0497868 -0.463966
-0.478203 0.0598443 -0.473213
0.0518853 0.441623 -0.492785
0.0834037 0.491223 0.505908
-0.504191 0.0611371 0.46283
0.0685488 0.480001 -0.497551
0.0382871 0.518245 0.471112
0.0653325 -0.491928 0.481971
-0.500063 0.0477949 0.483091
0.0587156 0.480808 0.514155
0.0362447 0.485074 -0.49641
0.0719312 0.50198 0.490371
0.0593923 -0.485346 0.475277
0.513327 0.0614074 0.494518
-0.524246 0.065422 0.495841
0.076102 0.498814 0.502155
0.0518569 0.491728 -0.515227
0.0608978 0.507128 0.489426
0.0550033 -0.499219 0.496047
0.493979 0.059799 0.505835
-0.491809 0.049206 0.513497
0.0659066 -0.496984 0.510561
0.0798289 -0.502331 -0.49064
0.0489986 0.502913 -0.509477
0.0678106 -0.494794 -0.490443
0.491555 0.0703297 -0.501323
-0.502447 0.0638078 -0.48666
0.06367 -0.513629 0.495471
0.0562016 -0.488788 -0.513077
0.0705544 0.484993 -0.494864
0.0799845 -0.483403 -0.486756
0.502392 0.0455689 -0.479999
0.0695078 0.508008 -0.471797
0.490613 0.0620022 -0.487925
0.062817 -0.469954 0.492884
0.0697368 -0.484355 -0.490927
0.0654679 -0.49028 -0.47116
0.0705224 0.494212 -0.452359
0.0735235 0.477117 -0.514165
0.076632 0.500221 0.499237
0.0733742 0.496543 0.482592
0.0787009 -0.503967 0.48393
-0.483383 0.0569337 0.478815
0.0746584 0.484759 0.508287
0.06956 0.487705 -0.516916
-0.509354 0.064851 0.4896
0.0648216 0.495392 0.489957
0.0582566 0.476702 -0.49605
0.0631657 0.506216 0.511168
0.0774627 -0.508049 0.500524
0.517058 0.05671 0.494125
-0.486046 0.0640344 0.510998
0.0746816 -0.518017 0.503061
0.0685193 -0.495351 -0.504048
0.0791917 0.501545 -0.510415
0.0857604 -0.49833 -0.490823
0.489941 0.0883795 -0.502368
-0.508634 0.0698657 -0.50484
0.0726215 -0.500706 -0.486826
0.0665853 0.490413 -0.491021
0.471156 0.0739446 -0.50627
-0.492716 0.0709642 -0.47149
0.0712042 -0.479155 0.518498
0.0689345 -0.481296 -0.50694
0.0756606 -0.467321 0.480577
0.0689088 -0.481424 -0.495437
0.0562685 -0.492904 -0.478083
0.0692569 -0.465654 0.511902
0.0742167 -0.453834 -0.481857
-0.487305 0.0687902 0.455559
0.061288 0.470512 -0.505893
0.0726942 0.499383 0.468224
0.0765311 -0.487658 0.477266
0.500262 0.0714731 0.459163
0.08541 0.494635 0.491099
0.091429 0.482495 -0.490846
0.498244 0.0873144 0.474039
-0.506922 0.0844974 0.464239
0.0869684 0.484418 0.491668
0.0557854 0.490959 -0.504363
0.0744588 0.491413 0.47988
0.0657355 -0.499512 0.495471
0.514004 0.0772611 0.484351
-0.514449 0.0938666 0.488725
0.0563524 0.494078 0.505552
0.0670804 0.508744 -0.494154
0.0713678 0.500249 0.498053
0.0664133 -0.504757 0.505216
0.513261 0.094242 0.511423
-0.512207 0.0797647 0.486616
0.0869579 -0.499422 0.4925
0.0850121 -0.485039 -0.503387
0.0817292 0.493857 -0.513456
0.0841882 -0.489115 -0.484911
0.504098 0.0769463 -0.509172
-0.482227 0.104125 -0.491381
0.0904581 -0.484436 -0.470929
0.0902585 0.496426 -0.477105
0.101953 -0.505974 -0.477069
0.513572 0.0748819 -0.483164
-0.489694 0.0908345 -0.488034
0.0829427 -0.490593 0.496414
0.0877009 -0.48458 -0.510711
0.503792 0.0841816 -0.475294
-0.496273 0.0873356 -0.476298
0.0912994 -0.457501 0.509398
0.0815037 -0.484691 -0.490911
0.0991408 0.462942 -0.49146
0.0920316 0.491892 0.462014
-0.481835 0.0863259 0.463983
0.489955 0.0770974 0.489729
0.0940339 0.48158 0.505436
0.478602 0.0786221 0.482552
0.0835771 0.462719 0.510195
0.0957766 0.501046 -0.504421
0.0911808 0.51173 0.496929
0.497405 0.0953623 0.481529
-0.496163 0.086988 0.478852
0.0851451 0.496651 0.501648
0.0802667 0.500121 -0.485237
0.0809116 0.488747 0.499451
0.0857337 -0.502477 0.51252
0.507683 0.0804751 0.486977
-0.488441 0.096943 0.498992
0.0926387 -0.521015 0.496445
0.09091 -0.505665 -0.498776
0.0799104 0.489702 -0.493292
0.0900388 -0.503736 -0.50512
0.496274 0.0848537 -0.499935
-0.497754 0.0957153 -0.499859
0.0960906 -0.499553 0.483004
0.0843936 -0.490081 -0.499083
0.0812023 -0.49144 -0.491355
0.487965 0.0949134 -0.484782
0.105681 -0.483541 0.521299
0.11143 -0.479441 -0.483735
0.0894026 0.501964 -0.465417
0.0923292 -0.498162 -0.472182
0.4891 0.115723 -0.477315
0.0778146 -0.462202 0.507072
0.499298 0.0982694 -0.461948
-0.492833 0.0876295 -0.458937
0.114393 -0.463432 -0.494061
0.074514 0.482968 -0.450671
0.0864752 -0.500481 -0.468587
0.483971 0.100673 -0.445547
0.110617 0.507721 0.470508
0.111142 0.482245 -0.508895
0.0981805 0.49938 0.467378
0.0944353 0.474951 0.495543
0.0942881 0.471562 -0.503223
0.0652439 -0.490063 0.467875
0.493701 0.0903591 0.501818
-0.505363 0.0802821 0.482639
0.0968515 0.489535 0.487245
0.0775961 0.488266 -0.514585
0.502074 0.0895576 0.494111
0.0821547 0.505244 0.496779
0.0800327 0.476916 -0.484438
0.0976499 0.493031 0.483526
0.0810484 -0.494199 0.473946
0.503771 0.0945166 0.48485
-0.497101 0.0906863 0.500933
0.101656 -0.488234 0.508871
0.107714 -0.501751 -0.502812
0.114342 0.514863 -0.494331
0.0934328 -0.502035 -0.495384
0.506669 0.133987 -0.503734
-0.483537 0.114045 -0.501271
0.109377 -0.509979 0.520563
0.0933236 -0.473252 -0.512826
0.121425 0.508908 -0.493021
0.122861 -0.50461 -0.487637
0.491912 0.101395 -0.491879
-0.495931 0.128771 -0.491949
0.0977639 0.513943 -0.472208
0.099201 -0.503312 -0.477159
0.482973 0.103413 -0.480258
-0.497109 0.106826 -0.473596
0.115231 -0.484377 0.4936
0.104072 0.49349 -0.461745
0.50265 0.104236 -0.47656
0.112756 -0.454355 -0.491333
0.100377 -0.502103 -0.475218
0.0881093 0.458312 0.498117
0.120795 0.500486 0.452451
0.116049 -0.521707 0.464506
0.0894723 0.467339 -0.50861
0.490515 0.110775 0.475564
-0.510665 0.0984279 0.476668
0.109033 0.4961 0.510599
0.109482 0.466533 -0.497936
0.114053 -0.498746 0.469075
0.492552 0.117729 0.482168
-0.502784 0.094367 0.476837
0.0986323 0.472462 0.504987
0.0956513 0.480632 -0.507994
0.105327 0.511489 0.478075
0.109356 -0.502017 0.483921
0.500987 0.112909 0.478732
-0.481229 0.10516 0.488836
0.101468 0.510683 0.501035
0.121411 0.493033 -0.499429
0.106463 0.498779 0.492969
0.108786 -0.501101 0.501028
0.483076 0.0971762 0.490554
-0.487884 0.0958848 0.494712
0.104065 -0.502277 0.502635
0.128174 -0.502472 -0.499408
0.130264 0.504867 -0.502583
0.114272 -0.482267 -0.504347
0.479338 0.131583 -0.494661
-0.515751 0.110164 -0.501826
0.112441 -0.496904 0.510224
0.123587 -0.485439 -0.498995
0.11026 0.495291 -0.493486
0.499101 0.100885 -0.502538
0.11839 -0.483186 0.498708
0.125322 -0.488342 -0.48982
0.115152 0.485221 -0.486567
0.1262 -0.489983 -0.472407
0.106413 -0.463463 0.518958
-0.512231 0.111815 -0.47812
0.127108 -0.444887 0.511345
0.10769 0.498916 0.436438
0.512421 0.118229 0.442431
0.104586 -0.507111 0.46148
0.124522 0.466091 -0.503074
0.122856 0.512881 0.474466
0.123771 0.478199 0.475036
0.104121 0.491507 -0.492305
0.102735 0.501736 0.495701
0.106877 -0.510081 0.479169
-0.499415 0.125583 0.487549
0.112754 0.50277 0.482496
0.110835 0.498615 -0.492657
0.112556 0.498544 0.492888
0.126704 -0.498393 0.494526
0.518136 0.12716 0.506455
-0.496122 0.124436 0.490807
0.112751 -0.49554 0.499236
0.126508 -0.500139 -0.512931
0.118113 0.481981 -0.48571
0.130382 -0.512703 -0.520749
0.486766 0.135712 -0.503284
-0.508411 0.136326 -0.50016
0.119273 -0.480555 0.478411
0.112374 -0.505696 -0.494549
0.12835 0.522348 -0.506443
0.503903 0.117037 -0.486823
-0.486718 0.123969 -0.475577
0.122748 -0.467943 0.496379
0.123742 -0.48629 -0.500699
0.133832 0.492287 -0.491503
0.129464 -0.517018 -0.490848
0.47708 0.134929 -0.476135
0.113781 -0.497357 -0.45335
0.511001 0.115483 -0.488687
0.111191 0.520471 -0.45728
-0.497175 0.12748 -0.47964
0.13901 -0.455558 0.519093
0.132212 -0.449259 -0.483962
0.120805 0.447208 -0.513305
0.125349 0.515157 0.465582
0.13997 0.456738 -0.510553
0.121306 -0.496506 0.478298
0.49966 0.118862 0.487908
0.130533 0.495594 0.505538
0.112285 0.493213 0.488769
0.488497 0.134775 0.464481
-0.510529 0.127391 0.456217
0.118371 0.475772 -0.496202
0.108594 0.497248 0.489393
0.116298 -0.508738 0.492798
0.479723 0.121935 0.495684
0.115425 0.51343 0.519317
0.117936 0.504195 -0.513309
0.129157 0.503204 0.500829
0.135868 -0.494732 0.494932
0.493049 0.120225 0.501295
-0.516804 0.119139 0.522817
0.141263 -0.505854 0.49177
0.14753 -0.480423 -0.529982
0.138033 0.504557 -0.523449
0.159928 -0.499086 -0.507204
0.503775 0.120201 -0.499191
-0.499678 0.136627 -0.50526
0.143807 -0.492568 0.490175
0.13601 -0.50437 -0.478426
0.135364 -0.513796 -0.495709
0.503251 0.150982 -0.471135
0.136388 -0.476643 0.499927
0.139374 -0.48612 -0.488465
0.150863 0.516199 -0.482801
0.135755 -0.495667 -0.494231
0.491953 0.137104 -0.473758
0.135768 -0.482053 -0.511016
0.146848 -0.499151 -0.47563
0.480632 0.117373 -0.47245
-0.505967 0.141119 -0.465498
0.14583 -0.456065 -0.509188
0.146011 0.519464 -0.459258
0.494787 0.142984 -0.474044
0.150129 -0.465316 0.488432
0.134682 0.452471 -0.493076
0.131838 0.510059 0.438775
0.139601 0.475545 0.490772
0.131382 -0.500628 0.462462
0.477535 0.131024 0.458788
0.13623 0.455685 0.522806
-0.504819 0.146292 0.473684
0.140519 0.500493 0.483181
0.115536 0.488688 -0.497442
0.124345 0.501039 0.481747
0.109625 -0.493938 0.497745
0.482191 0.13144 0.48199
-0.485901 0.175124 0.488525
0.123086 0.502186 0.511337
0.140583 0.490263 -0.499725
0.133209 0.488559 0.490587
0.135296 -0.513348 0.491359
