ply
format ascii 1.0
comment sampling resolution: 0.01
comment noise level: 0.03
comment Created by Open3D
element vertex 1726
property double x
property double y
property double z
end_header
0.142622 -0.50595 -0.487529
0.150282 -0.486339 0.517914
0.15481 -0.50053 -0.467042
0.507283 0.185927 -0.449895
0.182395 0.485142 -0.514143
0.499812 0.171079 0.437664
-0.563172 0.145559 0.471291
0.147848 0.508444 0.548171
0.171591 0.458476 -0.521004
0.171105 0.530461 0.465527
0.134997 -0.52125 0.487227
0.556739 0.0966441 0.47471
0.0963769 0.495682 0.494925
0.121428 0.446113 -0.516253
0.0845542 0.509065 0.517183
0.0467726 -0.499977 0.491179
0.479632 0.099101 0.549733
-0.508132 0.111967 0.514047
0.190703 -0.508191 0.49841
0.148922 -0.476541 -0.496573
0.184641 0.481305 -0.516627
0.14958 -0.541104 -0.543124
0.485055 0.170602 -0.533999
-0.462785 0.105815 -0.520292
0.138998 -0.408602 -0.58284
0.158042 0.496985 -0.523379
0.141264 -0.490022 -0.417832
0.437803 0.127816 -0.485602
-0.48406 0.173796 -0.488143
0.216483 -0.519321 0.498453
0.165184 -0.451735 -0.488692
0.206689 -0.481428 0.48429
0.129539 0.470544 -0.516003
0.0878768 0.495885 0.456105
0.508764 0.154521 0.503953
-0.506572 0.18022 0.487923
0.171349 0.513118 0.51493
0.132451 0.525764 -0.509075
0.111254 0.542175 0.44197
0.182038 -0.546343 0.46178
0.488095 0.21453 0.485217
-0.48554 0.205109 0.527411
0.158109 -0.464587 0.50085
0.209841 -0.519417 -0.482461
0.142424 0.480911 -0.489954
0.196971 -0.492706 -0.428582
0.533971 0.164913 -0.512259
-0.529397 0.152752 -0.530511
0.140837 0.462554 -0.506993
0.498892 0.16404 -0.523999
-0.513204 0.170118 -0.461177
0.167405 -0.465791 -0.575448
-0.504023 0.162757 -0.466093
0.556791 0.192221 0.519163
0.172942 0.453024 0.549244
0.134755 0.495096 0.462344
0.199452 0.478715 0.461465
0.164105 0.458593 -0.502897
0.169528 0.467559 0.489516
0.212771 -0.486088 0.478936
0.493624 0.125638 0.514583
-0.483516 0.1408 0.445202
0.147033 0.509934 0.497747
0.229647 0.494733 -0.551519
0.129781 0.462086 0.506657
0.193992 -0.547309 0.476791
0.513 0.179142 0.486031
-0.542966 0.226681 0.513205
0.135578 -0.522679 0.492621
0.232713 -0.475085 -0.514573
0.173084 0.536347 -0.512747
0.18236 -0.503783 -0.512328
0.505793 0.198526 -0.495408
-0.45887 0.136585 -0.480704
0.161901 -0.510852 0.520265
0.175624 0.556819 -0.503943
0.461695 0.14084 -0.511623
-0.528828 0.190795 -0.531543
0.151205 -0.571214 -0.441861
0.442877 0.18896 0.493185
-0.482657 0.123144 0.493743
0.133969 0.469137 0.450664
0.215996 0.460883 -0.472261
0.195212 0.487303 0.514074
0.177531 -0.531037 0.522523
0.565682 0.15439 0.547047
-0.538406 0.168814 0.460003
0.167164 0.541987 0.517293
0.195585 0.5354 -0.573202
0.161535 0.468886 0.484663
0.19669 -0.515163 0.478645
0.522885 0.183001 0.495831
-0.477795 0.17802 0.531557
0.198199 -0.511229 0.500424
0.149225 -0.491201 -0.529944
0.0816485 0.561323 -0.536284
0.212706 -0.552025 -0.543169
0.505992 0.208606 -0.527861
-0.521814 0.190542 -0.585663
0.181144 -0.438936 -0.49942
0.250439 0.528868 -0.481151
0.503441 0.210475 -0.437265
-0.513413 0.235191 -0.456982
0.151856 -0.445879 -0.521562
0.188033 -0.510915 -0.443055
0.117136 0.434206 0.469586
0.139138 0.520321 -0.510046
0.221975 -0.499564 0.468717
-0.504758 0.179334 0.513555
0.178098 0.463582 -0.485245
0.202164 0.435755 0.475903
-0.47309 0.129968 0.438472
0.1651 0.505103 0.518125
0.179026 0.517845 -0.454368
0.135946 0.510814 0.513997
0.163446 -0.469744 0.491624
0.462141 0.188089 0.488224
-0.504873 0.200566 0.509465
0.200594 -0.475861 0.517206
0.212227 -0.548975 -0.509852
0.200079 0.525444 -0.509631
0.180915 -0.470901 -0.424916
0.482119 0.178304 -0.501305
-0.477656 0.196403 -0.50538
0.231802 -0.465386 0.465822
0.188973 -0.447284 -0.529118
0.225391 0.522059 -0.522228
0.1855 -0.495002 -0.466356
0.514653 0.196856 -0.549698
0.197625 -0.443808 0.496561
0.217112 -0.484128 -0.478945
0.20193 0.516059 -0.483939
0.569218 0.175129 -0.458798
0.203721 0.503033 0.500145
0.164144 0.485382 -0.471085
0.141605 -0.45686 0.466184
0.494764 0.16646 0.468155
0.1822 0.488809 0.439458
0.165235 0.471579 -0.518011
0.211115 0.525188 0.480854
0.227739 -0.540246 0.496937
-0.500133 0.193016 0.527025
0.18866 0.462582 0.542623
0.158975 0.474975 -0.489368
0.237106 0.496683 0.490611
0.123071 -0.500097 0.469982
0.502567 0.192616 0.52129
-0.542147 0.237938 0.492377
0.236606 -0.509367 0.532658
0.256771 -0.508014 -0.509948
0.18668 0.546261 -0.483087
0.209509 -0.48291 -0.509803
0.536508 0.16637 -0.474365
-0.500939 0.214249 -0.452167
0.246617 -0.460733 -0.547576
0.206465 0.537699 -0.499934
0.506415 0.217325 -0.469684
-0.527998 0.232746 -0.465821
0.263575 -0.463387 0.528215
0.20543 -0.486994 -0.462094
0.18291 -0.54995 -0.486656
0.249777 0.451177 0.523126
0.207611 0.512147 0.459449
0.19527 -0.499908 0.445371
0.173294 0.535781 0.508908
0.217018 -0.532957 0.479236
0.491981 0.238487 0.49089
-0.503499 0.20262 0.502373
0.242431 0.518713 0.485721
0.183563 0.469811 -0.482811
0.181223 0.448095 0.532029
0.226672 -0.496493 0.470954
0.479575 0.269104 0.518316
-0.51403 0.187532 0.533761
0.249372 -0.471007 0.524342
0.204996 -0.477405 -0.487319
0.269235 0.519347 -0.458517
0.157958 -0.507652 -0.514567
0.532928 0.208172 -0.479659
-0.506373 0.265019 -0.431813
0.210207 -0.475665 0.50705
0.241057 -0.488918 -0.47597
0.164725 0.506081 -0.466552
0.195388 -0.522976 -0.473661
0.504421 0.249926 -0.482533
-0.522791 0.22538 -0.488712
0.231324 -0.464706 0.470816
0.220696 -0.455307 -0.526508
0.26802 -0.488211 -0.473679
0.224267 0.482727 -0.488568
0.505899 0.216413 -0.434321
-0.516827 0.214719 -0.410854
0.256092 0.547793 0.490152
0.178914 -0.495726 0.451247
0.204903 0.460261 -0.522215
0.177928 -0.485657 0.477123
0.521942 0.18228 0.464814
-0.476367 0.206765 0.473739
0.213461 0.477346 0.494645
0.225412 0.53289 -0.460692
0.213566 0.500227 0.531859
0.229417 -0.558599 0.512224
0.563418 0.22854 0.492478
-0.50181 0.194576 0.458243
0.217369 -0.447596 0.49912
0.207123 -0.4955 -0.496483
0.201718 0.487175 -0.47043
0.195208 -0.482288 -0.511232
0.481649 0.221426 -0.479892
-0.493706 0.286313 -0.458864
0.261963 -0.452325 0.569799
0.229944 0.460118 -0.476256
0.187559 -0.526781 -0.488157
-0.500099 0.268068 -0.462303
0.236924 -0.50228 0.500325
0.205288 -0.452564 -0.51797
0.182194 0.477551 -0.504421
0.219827 -0.456611 -0.49617
-0.533149 0.238333 -0.451677
0.220434 -0.499205 0.518598
0.237543 -0.469454 -0.466347
0.497254 0.201544 -0.482846
0.21603 0.464986 -0.50291
0.264298 0.476786 0.489714
0.240793 -0.490994 0.453502
0.203512 0.528801 0.457746
0.200163 0.457191 -0.507284
0.188083 0.538107 0.527165
0.248825 -0.479975 0.500413
0.171234 0.504095 0.460403
0.303275 0.459271 -0.474444
0.184906 0.465409 0.489733
0.242426 -0.490324 0.508014
0.571321 0.197832 0.484972
-0.503128 0.2329 0.470739
0.278308 -0.511359 0.493103
0.284327 -0.515429 -0.500097
0.231668 0.50485 -0.536488
0.24535 -0.493409 -0.503847
0.492632 0.317399 -0.527271
-0.512175 0.269895 -0.506988
0.218319 -0.479772 -0.509498
0.501205 0.291549 -0.456633
-0.498423 0.210592 -0.474061
0.192195 0.499608 -0.488193
0.271116 -0.499009 -0.512202
0.530582 0.260927 -0.444858
0.226373 0.513367 -0.451129
0.248796 0.450208 0.4471
0.269736 -0.483548 0.470291
0.23602 0.4629 0.497026
0.227435 0.494001 -0.463704
0.237162 -0.520966 0.482499
-0.472748 0.282631 0.487258
0.164065 0.513565 -0.427083
0.209427 0.569014 0.464418
0.251 -0.478632 0.548135
0.549166 0.313813 0.556642
-0.478887 0.184242 0.421692
0.206773 0.491845 0.474809
0.233771 0.487205 -0.518782
0.219642 0.5165 0.492495
0.191399 -0.481629 0.522703
0.50543 0.301964 0.444862
-0.466169 0.282387 0.518583
0.268831 -0.503007 0.511442
0.265608 -0.490577 -0.444557
0.280301 0.497714 -0.501283
0.255727 -0.525376 -0.518308
0.515676 0.246067 -0.517525
-0.482681 0.249091 -0.49664
0.208529 -0.457177 0.469029
0.313271 0.503539 -0.506763
0.227122 -0.445729 -0.468882
0.488652 0.199017 -0.454987
-0.530805 0.263592 -0.468766
0.202626 0.487707 -0.436674
0.247574 0.48814 -0.474257
0.255419 0.54907 0.563773
0.267535 -0.497928 0.490452
-0.445601 0.250652 0.500143
0.259678 0.430017 0.503253
0.282776 0.5317 0.412364
-0.520651 0.235196 0.503295
0.261754 0.537929 0.513564
0.236683 0.482795 -0.514505
0.247189 0.505535 0.506969
0.250783 -0.49351 0.542049
0.515359 0.264738 0.517404
-0.501134 0.233055 0.483011
0.304238 -0.474561 0.467161
0.261515 -0.46598 -0.503291
0.208875 0.503424 -0.47498
0.281089 -0.496011 -0.497036
0.437124 0.218942 -0.527611
-0.505985 0.230436 -0.492498
0.193049 -0.480433 0.527491
0.259223 -0.493036 -0.507147
0.25131 0.457584 -0.504091
0.281083 -0.546143 -0.516592
0.519397 0.300394 -0.510986
0.267959 -0.431585 0.48623
0.269683 -0.441229 -0.507476
-0.570105 0.271929 -0.470794
0.346113 -0.487521 0.536918
0.235169 -0.43415 -0.460666
0.533272 0.227929 -0.465503
0.257935 0.477282 0.527017
0.297603 0.490632 0.451757
0.280829 -0.552531 0.47212
0.480881 0.225715 0.531105
-0.497345 0.302695 0.518135
0.265206 0.428283 0.519084
0.27389 0.497898 -0.546638
0.239105 -0.472644 0.475315
-0.518067 0.227392 0.48494
0.256784 0.480423 -0.562846
0.23316 0.480467 0.4304
0.480686 0.22625 0.486298
-0.535386 0.259698 0.521032
0.289807 0.495414 0.521949
0.235518 0.504624 -0.44629
0.269154 0.526895 0.532204
0.277773 -0.472774 0.474419
0.472409 0.311742 0.489839
-0.514634 0.251191 0.498712
0.25949 -0.490903 0.448873
0.258829 -0.553966 -0.503036
0.260479 0.485693 -0.466071
0.270246 -0.495216 -0.519845
0.521496 0.319083 -0.478642
-0.484189 0.296036 -0.461894
0.23466 -0.508464 0.497817
0.32515 0.456339 -0.46254
0.278734 -0.485294 -0.462636
0.426921 0.230902 -0.519021
-0.488934 0.280522 -0.524405
0.238771 -0.437341 0.547469
0.260089 0.495033 -0.478954
-0.54626 0.24531 -0.504447
0.281347 -0.428145 -0.553069
0.250324 0.540503 -0.488196
0.25282 -0.537907 -0.466818
0.236377 -0.461859 -0.458898
0.230397 0.471796 -0.511556
0.484574 0.280294 0.444846
-0.530653 0.258384 0.475906
0.293702 0.481023 0.498212
0.23543 0.497362 -0.534676
0.273723 0.526153 0.483736
0.321867 -0.46989 0.466147
0.273764 0.42935 -0.552088
0.262527 -0.526512 0.504898
0.472275 0.290654 0.485331
-0.490704 0.28874 0.483893
0.247736 0.447941 0.564854
0.301115 0.532972 -0.467445
0.268912 0.475144 0.475843
0.221864 -0.44999 0.532163
0.502754 0.258144 0.490784
-0.55951 0.318278 0.4922
0.217503 -0.47574 0.469396
0.270946 -0.471589 -0.535048
0.298101 0.505878 -0.492609
0.27365 -0.534339 -0.549358
0.492685 0.285276 -0.459699
-0.484934 0.28292 -0.465373
0.329608 -0.452422 0.552416
0.300783 -0.511953 -0.480263
0.341949 0.534209 -0.439693
-0.507493 0.311208 -0.459394
0.283742 -0.510744 0.474666
0.241571 0.531341 -0.52255
0.274843 -0.463955 0.543374
0.335882 0.491939 -0.461229
0.475536 0.285694 -0.481187
-0.444509 0.295596 -0.509748
0.27905 0.46712 -0.471026
0.292308 0.513626 -0.533003
0.262903 -0.536457 0.481635
0.577815 0.255122 0.485509
0.23794 0.458895 0.5324
0.254629 -0.499657 0.500392
0.508789 0.295342 0.481096
-0.535184 0.264216 0.545103
0.308177 0.492668 0.486271
0.278851 0.456894 -0.46184
0.268231 0.466146 0.496746
0.280276 -0.509336 0.493245
0.499932 0.248569 0.511791
-0.517435 0.295485 0.469266
0.358704 -0.484157 0.481364
0.235996 -0.502856 -0.520072
0.268046 0.509599 -0.422452
0.269252 -0.45777 -0.551375
0.54561 0.268493 -0.52785
-0.531668 0.248573 -0.515346
0.25955 -0.478702 0.452786
0.281412 -0.494617 -0.521671
0.319179 0.502205 -0.483917
0.306285 -0.494825 -0.481377
0.471991 0.329495 -0.462079
-0.503147 0.306604 -0.443382
0.235235 0.503935 -0.505508
0.285834 -0.477609 -0.499181
0.293147 -0.442941 0.505862
0.275756 -0.500085 -0.469935
0.480045 0.280666 -0.448822
-0.482639 0.220528 -0.462999
-0.529519 0.283359 -0.412469
0.255152 0.49098 -0.555549
0.291358 -0.481504 0.445771
0.267758 0.506066 0.550795
0.316128 -0.462816 0.411557
-0.489174 0.288544 0.502894
0.26097 0.486465 -0.519791
0.29786 0.561015 0.438888
0.301381 0.488229 0.53256
0.252525 0.504681 -0.508169
0.291784 0.488603 0.542484
0.337632 -0.499697 0.528281
0.49707 0.22198 0.470709
-0.506507 0.275274 0.509153
0.326217 0.438858 0.543221
0.259257 0.528115 -0.540472
0.301767 0.524286 0.483461
0.319766 -0.496014 0.517261
0.505734 0.298568 0.533389
-0.537061 0.31299 0.556857
0.266086 -0.494156 0.511597
0.253381 -0.473863 -0.539082
0.265749 0.514792 -0.514978
0.302899 -0.496893 -0.442506
0.477666 0.237696 -0.512902
-0.548218 0.302683 -0.512821
0.339411 -0.451847 0.481538
0.253072 -0.496726 -0.471035
0.28864 0.504163 -0.51285
0.243581 -0.523401 -0.456616
0.531567 0.291265 -0.490678
-0.540253 0.288639 -0.505437
0.340687 -0.456768 -0.445935
-0.533829 0.284378 -0.499571
0.496157 0.304335 -0.466301
-0.512716 0.332976 -0.45163
0.413808 0.333667 -0.496888
0.29129 0.441079 -0.49542
-0.507707 0.261725 0.461588
0.264645 -0.554309 0.46086
0.309619 0.472262 0.526404
0.259452 0.494357 -0.537202
0.301046 -0.462359 0.424465
-0.520493 0.310557 0.512387
0.343601 0.488902 0.542989
0.252438 0.463091 -0.548095
0.297904 0.494509 0.426435
0.243851 -0.51387 0.505353
-0.523465 0.301923 0.466182
0.265955 0.489285 0.468389
0.245379 0.559249 -0.521384
0.279359 0.50352 0.466241
0.318001 -0.542965 0.503495
0.502506 0.280554 0.494429
-0.527365 0.30884 0.504695
0.29777 -0.520006 0.510708
0.309379 -0.508782 -0.507664
0.298714 0.493574 -0.473307
0.336589 -0.479813 -0.479057
0.452804 0.30237 -0.451936
-0.44218 0.229954 -0.526929
0.311824 -0.500447 0.515716
0.316948 -0.517528 -0.443613
0.375514 0.481858 -0.463638
0.300897 -0.495174 -0.46232
0.501965 0.274714 -0.514517
-0.466337 0.334954 -0.534876
0.339598 -0.485726 0.509761
0.295829 -0.470278 -0.505423
0.325261 0.482662 -0.461276
0.367753 -0.537191 -0.452428
-0.556354 0.307502 -0.513609
0.257923 -0.444423 0.533628
0.314364 -0.481146 -0.513591
0.268058 -0.510557 -0.466919
0.308797 -0.499863 0.409791
0.251792 0.527386 -0.50107
0.316893 0.514129 -0.445478
0.281954 0.4783 0.498871
0.4745 0.326572 0.461322
0.291329 0.496943 -0.504018
0.308726 -0.547012 0.471211
0.506824 0.308072 0.437143
0.311549 0.466774 0.488785
0.241549 0.474195 -0.536543
0.30189 0.546221 0.509507
0.30669 -0.44286 0.46906
0.308611 0.49602 0.504894
0.363182 0.516274 -0.489091
0.305136 0.502321 0.51408
0.302814 -0.493564 0.501872
0.484635 0.335846 0.526203
-0.525455 0.356535 0.562018
0.312786 -0.468098 0.496747
0.295467 -0.578184 -0.51409
0.295146 0.496443 -0.50456
0.336379 -0.521748 -0.524704
0.475601 0.312522 -0.502797
-0.455704 0.35485 -0.483501
0.303236 -0.464844 0.495471
0.345948 -0.492067 -0.504078
0.297135 -0.54496 -0.451522
-0.554151 0.334813 -0.455878
0.292578 -0.550123 0.508889
0.332579 0.493226 -0.437834
0.326238 -0.517005 -0.464851
0.4783 0.287266 -0.436999
-0.465827 0.311016 -0.486016
0.350558 -0.456389 0.493088
0.519417 0.284632 -0.456045
-0.517038 0.341804 -0.468629
0.332609 0.419838 -0.459611
0.324483 0.461259 -0.503012
0.520686 0.359058 0.468032
-0.493529 0.290726 0.52049
0.367632 0.44663 0.488722
0.319209 0.467328 -0.526536
0.313231 0.492143 0.496958
0.505764 0.278516 0.45592
0.347034 -0.554374 0.494791
0.570528 0.313909 0.491559
-0.478841 0.312934 0.478675
0.299861 0.534002 0.542492
0.339092 0.51642 -0.497444
0.339216 0.561041 0.468766
0.34437 -0.485868 0.49888
0.480558 0.312509 0.538602
-0.473805 0.330545 0.469709
0.320706 0.480444 0.518679
0.329297 0.517169 -0.534189
0.260927 0.450859 0.487137
0.345618 -0.484665 0.50111
0.443098 0.268785 0.493508
-0.474366 0.337837 0.528047
0.341607 -0.521389 0.477229
0.298496 -0.514956 -0.495275
0.298883 0.52362 -0.474147
0.35967 -0.495053 -0.526716
0.540047 0.317052 -0.512565
-0.435933 0.32464 -0.426313
0.39003 -0.461521 0.460791
0.353363 -0.482052 -0.549435
0.357974 -0.53809 -0.475271
0.538599 0.281076 -0.468467
-0.492402 0.329006 -0.460142
0.300817 -0.484459 -0.495665
0.296237 -0.573529 -0.453435
0.470457 0.323184 -0.460268
-0.506853 0.336114 -0.476706
0.274272 -0.488123 0.542308
0.303397 -0.516959 -0.498968
0.48384 0.356527 -0.46925
-0.487944 0.331229 -0.484877
0.349054 -0.515418 -0.463788
0.490504 0.362552 -0.505474
-0.522308 0.310302 -0.400519
0.273211 0.4342 0.464995
0.34663 0.469571 0.503784
-0.517463 0.356064 0.483357
0.321288 0.455589 0.464877
0.514554 0.344266 0.499358
0.319666 0.49668 0.50489
0.305594 0.457258 -0.501525
0.297454 0.546795 0.468972
0.558434 0.294989 0.454446
0.352972 0.527443 0.479231
0.333502 0.48441 -0.465153
0.358488 0.543279 0.5242
0.313335 -0.451975 0.483017
0.497884 0.353843 0.566309
-0.487967 0.388119 0.483871
0.318832 -0.480791 0.476809
0.374955 -0.511808 -0.545806
0.320936 0.511569 -0.401502
0.35927 -0.531605 -0.49033
0.493174 0.359949 -0.532903
-0.533908 0.319671 -0.487272
0.316794 -0.496666 0.514403
0.34408 -0.476944 -0.457421
0.392549 0.50227 -0.582011
0.325243 -0.504898 -0.504516
0.527409 0.358299 -0.514793
-0.496689 0.308129 -0.468292
0.36303 -0.466806 0.488116
0.359816 -0.515851 -0.518653
0.375377 0.517821 -0.50898
0.360498 -0.538435 -0.479717
0.533679 0.30313 -0.471582
0.300295 -0.449443 0.454536
0.367862 -0.448646 -0.51891
0.350017 0.525098 -0.456699
0.358581 -0.503949 -0.473954
0.532341 0.29752 -0.46896
0.370791 -0.471059 -0.553796
0.38407 -0.502361 -0.457015
0.502523 0.339613 -0.492503
0.525251 0.333473 0.462132
0.333311 0.443669 0.503331
0.335875 0.500784 0.494023
-0.563435 0.31241 0.384359
0.283355 0.439693 0.522849
0.282052 0.467025 -0.48656
0.350355 -0.486459 0.485116
0.510643 0.306289 0.453827
0.343145 0.547803 -0.491099
0.327505 0.523013 0.489483
0.519935 0.356975 0.556977
-0.48314 0.314626 0.464868
0.338193 0.518455 0.550466
0.361156 0.462904 0.482774
0.32557 -0.475365 0.561371
0.442751 0.32076 0.481705
-0.51987 0.331224 0.577161
0.320948 0.477994 0.470748
0.324871 0.508873 -0.519823
0.31508 0.566799 0.518491
0.334521 -0.483101 0.463137
0.506455 0.316103 0.510116
-0.526781 0.304821 0.450938
0.361067 -0.486062 0.492905
0.351564 -0.519083 -0.514981
0.33621 0.464355 -0.547431
0.387627 -0.526379 -0.501775
0.514586 0.290097 -0.503744
-0.501974 0.364031 -0.46718
0.360668 -0.524609 -0.525834
0.336737 0.43109 -0.505
0.305362 -0.495429 -0.485538
0.480231 0.263242 -0.49287
-0.505932 0.375757 -0.460489
0.366555 -0.465027 0.466315
0.333545 -0.522615 -0.539196
0.480254 0.37638 -0.48677
-0.493309 0.289146 -0.454042
0.380026 -0.431416 -0.522943
-0.539025 0.368129 -0.446751
0.394489 -0.510965 0.51995
0.506675 0.381462 -0.433555
0.380763 -0.475488 0.542586
0.328755 0.489215 -0.49283
0.348416 0.433735 0.50896
0.468165 0.362844 0.41794
0.362493 0.410895 0.457302
0.323579 0.45787 0.431589
0.555259 0.356875 0.459833
0.321201 0.486906 0.485477
0.339055 0.439188 -0.513207
0.388599 -0.440283 0.520417
0.537615 0.298322 0.444872
0.335959 0.532922 0.503158
0.342779 0.497378 -0.576474
0.538998 0.315474 0.462025
-0.491476 0.364753 0.499903
0.318713 0.481155 0.487173
0.397173 0.481044 -0.528566
0.382604 0.471583 0.555153
0.362307 -0.532097 0.453795
0.520561 0.366413 0.517301
-0.451825 0.364871 0.539201
0.373626 0.490271 0.491004
0.353738 0.522155 -0.459306
0.341147 0.460089 0.510729
0.335773 -0.515739 0.485444
0.550087 0.357373 0.487713
-0.540765 0.374933 0.537489
0.378861 -0.438714 0.472297
0.354651 -0.562384 -0.54458
0.359105 0.498393 -0.550559
0.395187 -0.471567 -0.503648
0.515849 0.377096 -0.487064
-0.504873 0.369469 -0.570386
0.368199 -0.477108 0.47248
0.402732 -0.476255 -0.481304
0.320369 0.514025 -0.510732
0.507894 0.351768 -0.472096
-0.481948 0.37964 -0.501028
0.372392 -0.493049 -0.496488
0.368095 0.535843 -0.495085
0.377054 -0.53266 -0.488416
0.450997 0.344735 -0.539313
0.324477 -0.447831 0.548783
0.372817 -0.487626 -0.537951
0.406702 -0.540915 -0.448789
0.513472 0.372161 -0.503014
-0.547363 0.412552 -0.493254
-0.471772 0.390532 -0.464963
0.364035 -0.459645 0.477694
0.351157 -0.482337 -0.447893
0.369067 0.498432 -0.448846
0.373024 0.47958 -0.435011
0.524738 0.335386 -0.417627
0.387855 0.457765 -0.47481
-0.506753 0.335213 0.457444
0.360517 0.410955 -0.509923
0.310017 0.427458 0.490824
0.336286 0.469476 -0.471585
0.348999 0.533884 0.452643
0.461294 0.372098 0.4784
-0.510923 0.359648 0.431572
0.403795 0.510997 0.495149
0.337757 0.460805 -0.464727
0.345568 -0.533269 0.45795
0.469876 0.369428 0.446994
-0.447163 0.385163 0.45008
0.365661 0.488588 0.466212
0.377934 0.468973 -0.480998
0.355301 0.544617 0.484984
0.412748 -0.521782 0.510489
-0.521008 0.306115 0.476009
0.434261 0.465797 0.486478
0.419154 0.535267 -0.488454
0.359772 0.493174 0.48513
0.367229 -0.487063 0.48941
0.48828 0.374384 0.445983
-0.548456 0.370324 0.528692
0.401488 0.495534 0.507961
0.377133 0.522679 -0.533858
0.399101 0.47888 0.49713
0.366309 -0.46706 0.496269
0.492615 0.359208 0.565624
-0.492066 0.338908 0.53073
0.399449 -0.484996 0.512164
0.339806 -0.501929 -0.512665
0.320321 0.499545 -0.467012
0.366558 -0.484388 -0.458104
0.478219 0.427463 -0.523584
-0.488043 0.375481 -0.472241
0.433039 -0.53985 0.522977
0.370484 -0.466793 -0.497188
0.325943 0.499524 -0.471234
0.383754 -0.516472 -0.529268
-0.502635 0.349935 -0.52786
0.389384 0.53376 -0.467628
0.408114 -0.48541 -0.515318
0.468119 0.329588 -0.44712
-0.549662 0.371599 -0.516579
0.343793 -0.469368 0.514964
0.410789 -0.409751 -0.461107
0.384975 0.478385 -0.494358
0.337233 -0.498618 -0.486328
0.376967 -0.43348 0.504562
-0.486656 0.381706 -0.46553
0.380804 -0.463092 0.545384
0.336694 -0.415885 -0.452531
0.405179 0.511553 -0.424711
0.344629 -0.515049 -0.5017
0.528955 0.363341 -0.440225
0.344372 -0.457102 -0.493914
-0.512556 0.367442 -0.420801
0.383046 0.484295 0.479877
0.432083 -0.508906 0.437454
0.329695 0.454913 -0.510664
0.38719 0.456803 -0.518806
0.317844 0.498454 0.465943
0.413374 -0.452048 0.483465
0.51503 0.368403 0.47068
0.399933 0.431956 0.513803
0.347271 0.441197 0.451794
0.54456 0.3582 0.412337
-0.547611 0.371017 0.462397
0.375762 0.444916 0.516699
0.392185 0.470664 -0.496448
0.380152 0.457059 0.483046
0.482971 0.365285 0.463874
-0.522893 0.402814 0.527714
0.381176 0.455067 0.488429
0.3685 0.418637 -0.511816
0.309983 0.507789 0.477961
0.361261 -0.502975 0.520798
0.472218 0.388885 0.432492
-0.461815 0.36297 0.473714
0.338113 0.542113 0.468509
0.292593 0.450591 -0.495273
0.368569 0.486986 0.536724
0.359034 -0.492256 0.515412
0.481462 0.374681 0.496053
-0.504363 0.365206 0.462894
0.398551 -0.509387 0.535144
0.366638 -0.485555 -0.509649
0.378132 0.503688 -0.488674
0.34742 -0.459935 -0.502694
0.454001 0.39127 -0.504014
-0.49862 0.320845 -0.54885
0.375365 -0.508005 0.500125
0.425928 -0.494517 -0.547056
0.36453 0.484362 -0.475635
0.465192 -0.500037 -0.535044
-0.509091 0.343825 -0.523466
0.421016 -0.490718 0.503427
0.394159 -0.491698 -0.495307
0.370838 0.51209 -0.439352
0.360715 -0.479122 -0.480169
-0.437141 0.37064 -0.492548
0.404824 -0.44513 0.490937
0.39288 -0.489254 -0.541143
0.376415 -0.494084 -0.44733
0.440762 0.35932 -0.419955
-0.492091 0.377897 -0.467215
0.371586 -0.505629 -0.497499
0.384398 0.476029 -0.459112
-0.488183 0.36629 -0.477269
0.332959 -0.427221 -0.49292
0.554378 0.36816 -0.492271
-0.456985 0.402598 -0.438724
0.328121 -0.479668 0.492517
0.53354 0.380852 -0.454084
0.528365 0.389415 0.442582
0.382154 -0.555767 0.450279
0.501947 0.447566 0.491751
0.380149 0.489142 0.459982
0.546143 0.372018 0.455402
0.369973 0.485754 0.543038
0.311068 0.420728 -0.531105
0.479104 0.358638 0.449096
-0.490301 0.360569 0.523899
0.408981 0.464366 0.483115
0.361213 0.498264 -0.48314
0.351023 0.550672 0.492377
0.374315 -0.474058 0.468561
0.368646 0.510648 0.496957
0.421802 0.477883 -0.497678
0.353751 0.512013 0.531228
0.424767 -0.508356 0.496631
0.487181 0.396692 0.446957
-0.496363 0.343214 0.48467
0.381126 0.422071 0.4796
0.372217 0.487375 -0.458797
0.412372 0.552735 0.476163
0.390624 -0.5016 0.500294
0.527505 0.320528 0.503989
-0.49497 0.363794 0.49069
0.414092 -0.535769 0.504202
0.419796 -0.517797 -0.49116
0.403485 0.504274 -0.519026
0.38268 -0.480827 -0.440276
0.506881 0.376985 -0.445035
-0.464765 0.404119 -0.480045
0.393766 -0.447113 0.541875
0.394426 -0.496046 -0.534546
0.39804 0.497623 -0.478223
0.437886 -0.496587 -0.471733
0.594306 0.39765 -0.4751
0.449188 -0.522591 0.479675
0.36582 0.46629 -0.434486
0.457206 0.403623 -0.485868
0.358394 0.542905 -0.50566
0.357069 -0.511811 -0.442899
-0.48603 0.393724 -0.526288
0.405507 -0.454627 -0.55049
0.386425 0.548687 -0.412662
0.412232 -0.501345 -0.470387
0.36131 -0.459939 -0.544573
0.408623 0.473093 -0.518607
0.369566 -0.438072 -0.442527
0.407078 -0.396999 0.522403
0.482393 0.358529 -0.437894
-0.468751 0.40782 -0.444497
0.414543 -0.435604 0.524203
0.35192 0.418028 -0.445064
-0.515976 0.380169 0.450776
0.517088 0.408433 0.439144
-0.515923 0.421608 0.494407
0.437613 0.428572 0.507014
0.403586 0.451286 -0.497083
0.377661 0.526456 0.478303
0.402114 -0.498044 0.456485
0.473051 0.40442 0.476119
0.346433 0.449887 0.54915
0.457896 0.410693 -0.498502
0.372039 0.513955 0.474519
0.493545 0.404828 0.460215
0.374786 0.515906 0.491814
0.374674 0.42667 -0.472762
0.353802 0.556263 0.445898
0.387214 -0.504675 0.449362
0.492463 0.383062 0.469628
-0.506477 0.409256 0.441637
0.384126 0.51334 0.516214
0.375131 0.500965 -0.465918
0.357461 -0.475311 0.504571
0.339868 0.4905 0.469508
0.412158 0.479368 -0.598811
0.435528 0.520502 0.470161
0.350585 -0.456836 0.515734
0.531363 0.418599 0.485934
-0.480041 0.370225 0.47145
0.410757 -0.506463 0.478232
0.419914 -0.542579 -0.515655
0.4569 0.473224 -0.511115
0.39169 -0.566399 -0.511455
0.464672 0.403246 -0.541354
-0.482987 0.358669 -0.506366
0.430833 -0.447077 0.472314
0.377159 -0.52673 -0.537722
0.413234 0.525753 -0.485388
0.498477 0.450899 -0.513522
-0.53065 0.413159 -0.465582
0.404329 -0.44657 0.462668
0.380055 -0.493816 -0.474007
0.410236 -0.492368 -0.512159
0.382737 -0.510067 0.498424
0.398006 -0.42907 -0.509097
0.350558 0.527964 -0.414577
0.397575 -0.461375 -0.425546
0.509695 0.339529 -0.442225
-0.488042 0.36497 -0.44741
0.40829 -0.464379 -0.526305
0.411396 0.509176 -0.46914
0.478754 0.415389 -0.497446
-0.438792 0.347494 -0.451429
0.37119 -0.452292 -0.501601
0.463776 -0.481444 -0.439306
-0.442837 0.410335 -0.446228
0.426192 -0.427714 -0.472893
-0.485805 0.40414 -0.4477
0.355907 -0.357476 0.508554
0.49658 0.391586 -0.408505
0.345016 0.445897 -0.466871
0.395593 -0.486204 0.435589
0.395001 0.459263 0.485343
0.459062 -0.449242 0.406363
0.508437 0.410275 0.392929
0.372334 0.486936 0.456158
0.368032 -0.492194 0.414601
0.420943 0.452062 0.532524
0.373771 0.472132 -0.488042
0.489416 0.432161 0.47631
-0.551847 0.362391 0.488482
0.390744 0.425582 -0.517322
0.479937 0.390756 0.435961
0.392474 0.418191 0.473151
0.424228 -0.513279 0.460414
0.485745 0.459013 0.447627
0.427416 0.451421 -0.519608
0.38979 0.48283 0.460163
0.359009 -0.561753 0.495538
-0.483325 0.362957 0.473449
0.41935 0.493365 0.464066
0.424331 0.459206 -0.455758
0.449322 -0.538805 0.507879
0.485635 0.425911 0.461604
0.366047 0.478607 0.504689
0.410525 0.500815 -0.473305
0.377286 0.496211 0.501303
0.383559 -0.465092 0.505713
0.493023 0.358529 0.528101
-0.510369 0.40968 0.496092
0.405316 -0.481771 0.524556
0.433063 -0.50179 -0.477341
0.443807 0.464557 -0.431333
0.383696 -0.481026 -0.536617
0.464824 0.420148 -0.466009
-0.488957 0.358827 -0.512433
0.390353 -0.494165 -0.571522
0.434412 0.520825 -0.477773
0.356913 -0.568782 -0.476313
0.528083 0.35853 -0.498615
-0.525219 0.443888 -0.473933
0.445041 -0.47531 0.481263
0.426102 -0.416761 -0.498381
0.382535 0.498953 -0.39462
0.410243 -0.484611 -0.472576
0.499368 0.385925 -0.487089
-0.536356 0.437651 -0.465341
0.407489 -0.431757 -0.45794
0.437138 0.499595 -0.447968
0.405728 -0.485424 -0.42736
0.475984 0.379144 -0.407126
-0.479519 0.36837 -0.449702
0.415661 -0.484001 0.514537
0.405027 -0.468983 -0.524551
0.530631 0.412289 -0.444017
-0.502247 0.436021 -0.483581
0.457462 -0.437854 0.507887
0.442558 -0.411946 -0.495353
0.494708 0.423456 -0.438187
-0.462718 0.389564 -0.447237
0.424448 0.525836 -0.399964
0.458957 -0.513549 -0.487038
0.509697 0.405422 -0.444799
-0.519621 0.403103 -0.483317
0.407626 -0.396406 0.444524
0.406929 -0.387125 -0.440916
-0.46429 0.420227 -0.439392
0.39887 0.505025 -0.4508
0.415775 0.543938 0.410181
0.418472 0.418845 0.55445
-0.482607 0.371472 0.3716
0.491612 0.399752 0.450135
-0.469268 0.365333 0.407089
0.388222 -0.463106 0.439665
0.531157 0.424294 0.383564
-0.54477 0.415459 0.439273
0.382465 0.452604 0.538077
0.432505 -0.469765 0.413808
0.510539 0.41081 0.420606
-0.450122 0.359124 0.428036
0.358202 0.488823 0.464021
0.437381 -0.48905 0.426154
0.462836 0.419319 0.41366
0.39528 0.443869 0.486704
0.399988 0.449075 0.420745
0.478832 0.425999 0.466648
-0.508041 0.347211 0.491792
0.383832 0.481149 0.50372
0.396902 0.49027 -0.492753
0.383658 0.565793 0.459556
0.376416 -0.484443 0.46856
-0.471698 0.40214 0.526693
0.410112 0.498342 0.519548
0.34648 0.487624 -0.52551
0.456285 0.477227 0.500057
0.367821 -0.477346 0.462789
0.465358 0.386215 0.450562
-0.508238 0.382761 0.459198
0.404137 0.520727 0.508947
0.407712 0.49434 -0.439503
0.408965 0.562267 0.524991
0.446775 -0.513424 0.49175
0.49805 0.395912 0.456092
-0.53543 0.37907 0.516484
0.424642 0.526935 0.521395
0.439911 0.474556 -0.482548
0.380331 0.465896 0.470873
0.451652 -0.500868 0.526393
0.509719 0.360827 0.487958
-0.498198 0.393275 0.510448
0.417477 -0.486854 0.483827
0.415299 -0.515251 -0.525037
0.41611 0.507385 -0.522554
0.399266 -0.529112 -0.524378
0.559928 0.422293 -0.53064
-0.460199 0.382098 -0.531235
0.465961 -0.480736 0.500083
0.3857 -0.501759 -0.507653
0.400834 0.542569 -0.503173
0.456002 -0.522776 -0.525512
0.458849 0.372167 -0.515761
0.398178 -0.437444 0.563343
0.443322 -0.479959 -0.50341
0.479697 0.473745 -0.435586
-0.551392 0.38914 -0.459975
0.438474 -0.427497 0.494215
0.408348 -0.491176 -0.491541
0.476515 0.37283 -0.410057
-0.521022 0.390627 -0.475594
0.426191 -0.43438 0.527382
0.407503 -0.467878 -0.489525
0.475087 0.53205 -0.429786
0.41505 -0.481368 -0.470447
0.475036 0.426429 -0.457153
-0.505395 0.428241 -0.388187
0.42563 -0.429047 0.528948
0.463945 -0.468685 -0.500765
0.419116 0.525948 -0.458652
0.396239 -0.485384 -0.443283
0.539125 0.415516 -0.461238
0.370196 -0.44798 0.495047
0.423399 0.503814 -0.516347
0.478394 0.406803 -0.384282
-0.528507 0.426395 -0.431803
0.389958 0.492689 -0.465557
0.527749 0.356416 -0.464858
0.388493 -0.455055 0.530803
0.448785 -0.406429 -0.502847
0.469373 0.410835 -0.42478
-0.467764 0.396864 -0.489505
0.399071 -0.542341 -0.402538
0.462457 -0.502296 -0.363669
0.492644 0.419686 -0.36699
0.469923 0.450006 -0.410116
-0.548711 0.409125 -0.395177
0.457337 0.415085 0.554144
0.405409 0.521575 0.378931
0.400356 0.393977 -0.531817
0.436442 -0.49939 0.416234
-0.473477 0.372689 0.400765
0.374971 0.443937 0.513714
0.411587 0.51184 0.424079
-0.481425 0.447757 0.419936
0.410191 0.476941 0.459771
-0.505902 0.479636 0.42179
0.407463 0.427792 0.505311
0.441496 0.461655 0.49086
0.412185 -0.492976 0.42557
-0.474964 0.431369 0.395242
0.440363 0.433482 0.530545
0.441902 0.447787 -0.445374
0.459437 0.495187 0.432388
0.448109 0.350066 0.434588
-0.480509 0.43393 0.447983
0.432187 0.492829 0.476145
0.407866 0.454064 -0.4647
0.455166 -0.467861 0.405054
0.503571 0.362963 0.462755
-0.532676 0.401214 0.430852
0.43352 0.396794 -0.521753
0.404986 0.523421 0.471551
0.419224 -0.52343 0.447602
0.530197 0.454597 0.440066
-0.506762 0.381032 0.441547
0.439642 0.462254 0.51489
0.421629 0.449257 -0.576061
0.394142 0.476231 0.473397
0.392694 -0.505102 0.461851
0.500211 0.470687 0.462904
-0.425947 0.419716 0.502748
0.4264 0.489991 0.53423
0.454248 0.521421 0.453605
0.427802 -0.503411 0.445897
-0.535609 0.404514 0.501936
0.466922 0.460362 0.518335
0.426166 0.54716 -0.559695
0.468179 0.534265 0.489812
0.397424 -0.533464 0.496653
0.472877 0.377282 0.456569
-0.492555 0.4577 0.459519
0.397281 0.474415 0.529151
0.398258 0.47227 -0.542725
0.394556 0.438441 0.499992
0.456761 -0.466359 0.462387
0.464855 0.441836 0.498937
-0.451219 0.440223 0.523648
0.451472 -0.495703 0.489752
0.474406 -0.517997 -0.473859
0.43685 0.519416 -0.525043
0.430475 -0.507997 -0.463485
0.471183 0.434009 -0.530179
-0.497899 0.449606 -0.533182
0.404681 -0.491707 0.559394
0.411081 -0.450204 -0.521867
0.36268 0.528446 -0.506287
0.415871 -0.48924 -0.508795
0.508182 0.434673 -0.526755
-0.516006 0.397965 -0.503048
0.418558 0.486096 -0.446474
0.431366 -0.49134 -0.440375
0.433385 -0.524956 0.506066
0.465 -0.499289 -0.483957
0.435125 0.461375 -0.474103
0.504113 0.438638 -0.440793
-0.479078 0.451228 -0.470828
0.393041 -0.444024 0.503815
0.425665 -0.455377 -0.504074
0.402146 -0.522133 -0.473129
0.450556 -0.522796 -0.445258
0.486378 0.447618 -0.442202
0.490685 -0.434498 0.492206
0.416223 -0.434948 -0.5311
0.420554 0.49267 -0.424593
0.453962 0.459317 -0.395161
-0.441248 0.445268 -0.441708
0.378373 -0.425889 0.493865
0.368799 0.527854 -0.417899
0.49837 0.41498 -0.408457
0.35516 -0.420088 0.524554
-0.474477 0.475222 -0.436
0.447274 -0.444924 -0.437897
0.388329 -0.463553 -0.363801
-0.556508 0.430459 -0.434509
0.472805 0.444934 -0.407898
0.546188 0.437543 -0.398137
0.411939 0.501829 -0.358953
-0.555101 0.393523 -0.352977
0.486156 -0.359293 0.529291
-0.450857 0.436327 -0.387533
0.408074 0.517903 0.301299
-0.507938 0.405791 0.353417
0.43504 -0.514817 0.387659
-0.544182 0.462145 0.39407
0.423287 0.51305 0.354352
0.396554 -0.478494 0.449752
0.50403 0.399866 0.401175
-0.56304 0.478322 0.480248
0.446947 0.446912 0.480937
0.481552 0.479208 0.429942
-0.518439 0.467795 0.421812
0.388411 0.52067 0.414746
0.504732 0.446222 0.455952
-0.456868 0.429214 0.45035
0.445402 0.477342 0.465875
0.425764 0.504297 0.493469
0.399979 -0.502688 0.475188
0.47993 0.422646 0.450958
-0.454187 0.467399 0.417292
0.460477 0.474311 0.489196
0.456047 0.454529 -0.491243
-0.53075 0.422692 0.463317
0.393824 0.46414 0.521901
0.434912 0.450952 -0.520613
0.46474 0.495134 0.451635
0.430625 -0.476447 0.42845
0.469067 0.399273 0.503102
-0.503843 0.459435 0.48898
0.393061 0.489881 0.492304
0.423279 0.475571 -0.506256
0.413749 -0.503326 0.477498
0.485495 0.437511 0.469817
0.441199 0.424976 -0.504762
0.412078 0.51562 0.55006
0.423046 -0.476976 0.423243
0.48908 0.434562 0.521526
-0.485491 0.439432 0.532702
0.420663 0.526694 0.514406
0.421764 0.538594 -0.474042
0.413521 0.541675 0.506157
0.470791 -0.440377 0.424776
0.454684 0.402913 0.518263
-0.497814 0.421961 0.483858
0.442737 -0.483414 0.479049
0.458378 -0.44386 -0.500441
0.48265 0.521909 -0.485066
0.435275 -0.505503 -0.473068
0.480962 0.439029 -0.530813
-0.504023 0.431881 -0.428315
0.430411 -0.526132 0.49635
0.479665 -0.481297 -0.512658
0.409884 0.499377 -0.479771
0.452689 -0.47576 -0.511303
0.473178 0.426917 -0.569509
-0.501097 0.460963 -0.465726
0.414627 -0.491377 0.478148
0.440208 -0.501144 -0.496835
0.497383 0.474441 -0.480265
0.401401 -0.483479 -0.503024
0.573225 0.499484 -0.465228
-0.519073 0.535772 -0.534662
0.431639 -0.478934 0.521931
0.435796 -0.452802 -0.489513
0.429583 0.481936 -0.45988
0.455982 -0.463104 -0.541544
0.486566 0.448306 -0.433769
-0.542113 0.462039 -0.447925
0.424289 -0.493013 0.486801
0.378496 0.452656 -0.457945
-0.468545 0.460904 -0.508822
0.420766 -0.431779 0.426878
0.468446 -0.55874 -0.468937
0.502736 0.486644 -0.455316
0.431002 -0.490053 -0.435032
0.408689 -0.433214 0.536512
0.363747 -0.483757 -0.474098
0.386382 0.516772 -0.428262
0.480265 0.429159 -0.449655
0.451793 -0.398246 0.523946
0.467586 -0.451925 -0.505069
0.419138 -0.539341 -0.470316
-0.467534 0.43363 -0.422649
0.474995 -0.423032 0.498978
0.419533 0.475408 -0.407579
0.466287 -0.466431 -0.420827
0.542555 0.368713 -0.417439
0.451346 -0.365407 -0.522938
0.48221 0.493642 -0.351745
-0.47939 0.376284 -0.471938
0.480213 0.487884 -0.358037
-0.480843 0.469963 -0.41028
0.394739 -0.414978 0.508986
0.408127 -0.341372 -0.50119
0.479608 0.391205 -0.354808
0.429002 -0.468647 -0.310044
0.538369 0.415905 -0.346852
0.36048 0.340544 0.515754
0.430176 0.361786 -0.484029
0.477997 0.404368 0.325542
-0.519869 0.490237 0.289494
0.463199 0.365532 0.461752
0.49856 0.385094 -0.511562
0.397067 0.361115 0.542662
0.480354 0.389334 -0.489535
0.436693 0.46866 0.39742
0.533046 0.427623 0.38258
0.44135 0.365279 0.562086
0.48893 0.446259 0.408663
0.441359 0.474172 0.516202
0.521654 0.456826 0.39263
0.427621 0.401213 0.510985
0.414314 0.475182 0.395852
0.481692 0.427542 0.379702
-0.448735 0.42419 0.425968
0.381702 0.407788 0.461576
0.502602 0.451004 0.396931
0.415757 0.44828 0.491846
0.511511 0.44968 0.403273
0.41506 0.387518 0.492144
0.472615 0.445124 -0.487085
0.418774 0.486676 0.387497
0.516075 0.454095 0.477865
-0.513193 0.413967 0.370471
0.501226 -0.484139 0.4368
-0.522153 0.4169 0.467233
0.426993 0.469634 0.523932
0.393232 0.459511 0.471821
0.48136 0.416212 0.44691
-0.476174 0.431509 0.499388
0.405368 0.517292 0.547786
0.460903 0.474327 -0.514115
0.425217 0.521208 0.494169
0.483031 -0.488191 0.418022
0.506622 0.468886 0.511607
-0.490484 0.444914 0.506695
0.428401 0.464637 0.544051
0.376866 0.449378 -0.507767
0.43541 -0.534703 0.460453
0.456196 0.500979 0.500594
0.453055 0.478295 -0.506757
0.415742 0.494046 0.440093
0.484347 -0.535013 0.527727
0.518627 0.461401 0.473938
-0.469371 0.435327 0.531034
0.450042 0.50334 0.454135
0.454118 0.505119 -0.563717
0.42125 0.490017 0.496356
0.396978 -0.494938 0.488767
0.535012 0.449897 0.51309
-0.558567 0.46154 0.448063
0.431878 -0.478862 0.494321
0.472224 -0.480565 -0.467226
0.451118 0.513094 -0.530066
0.471709 -0.499935 -0.522754
0.476016 0.437438 -0.45506
-0.522941 0.441851 -0.485198
0.461765 -0.485815 0.434335
0.460343 -0.499018 -0.489046
0.439255 0.528007 -0.490297
0.387853 -0.483526 -0.539846
0.537124 0.445196 -0.499046
-0.531351 0.419686 -0.530417
0.400399 -0.464399 0.52494
0.485275 -0.50479 -0.529338
0.408338 -0.521485 -0.488752
0.43503 0.433804 -0.517247
-0.548437 0.431984 -0.517837
0.414342 -0.49727 0.49505
0.456337 -0.476258 -0.490982
0.499785 0.461506 -0.488961
0.443479 -0.506628 -0.47456
0.452982 0.430306 -0.479314
-0.491191 0.46717 -0.45826
0.442298 -0.444583 0.480512
0.42428 -0.442999 -0.475812
0.390711 0.470931 -0.42169
0.450532 -0.498862 -0.435713
-0.494276 0.417346 -0.479405
0.476929 -0.414944 0.451663
0.440322 -0.45714 -0.503751
0.452247 0.503781 -0.453111
0.42252 -0.516913 -0.462403
-0.487419 0.415564 -0.450565
0.473355 -0.438649 0.532755
0.446027 -0.447147 -0.486216
0.395271 0.507924 -0.402385
0.489124 -0.530045 -0.413737
0.495795 0.477511 -0.38111
0.457738 -0.414133 0.555778
0.43675 -0.402357 -0.509275
0.475677 -0.509776 -0.451102
0.529656 0.442533 -0.419906
-0.503331 0.453511 -0.41114
0.484626 -0.41292 0.525215
0.456139 -0.448016 -0.50628
0.471528 -0.521619 -0.433374
-0.44652 0.433485 -0.417192
0.437611 -0.437412 0.507812
0.46596 0.528023 -0.381663
0.459334 -0.419374 0.481988
0.45613 -0.380555 -0.476575
0.454378 -0.492178 -0.41086
0.407975 -0.379189 0.501118
0.398528 -0.515658 -0.369464
-0.476607 0.480474 -0.395218
0.453562 -0.437912 0.473585
0.433755 -0.398788 -0.477313
0.480436 -0.456354 -0.354757
0.436324 0.400278 -0.382412
0.460967 0.435252 -0.385625
0.519699 0.429315 -0.324049
0.474367 -0.312751 -0.48147
0.498992 -0.233277 -0.486554
0.431957 0.329731 0.526021
0.547258 0.39668 0.335294
0.448913 0.528514 0.365241
0.518489 -0.509187 0.388519
0.390959 0.536393 0.413238
0.478563 -0.568015 0.398295
0.486262 0.483055 0.361859
-0.489903 0.443329 0.404457
0.419156 0.502855 0.39735
0.466041 -0.503133 0.357853
0.472163 0.422514 -0.509222
0.450636 0.488558 0.397009
0.435433 -0.523949 0.429305
0.442912 0.486435 0.399659
0.502578 0.372163 0.531028
0.46484 0.442671 -0.47107
0.472662 -0.523333 0.384479
-0.480235 0.448366 0.399514
0.387441 0.467397 0.496624
0.436773 0.402266 -0.516936
0.440056 0.531664 0.415619
-0.501367 0.444102 0.451748
0.461452 0.456544 0.533697
0.46566 0.447057 0.461368
0.460419 -0.497542 0.438039
0.540334 0.476234 0.374405
-0.508183 0.472267 0.398976
0.474152 0.485945 0.432762
0.507074 -0.477803 0.412368
0.472184 0.403982 0.440875
0.450462 0.466053 0.524221
0.444587 0.466607 -0.530637
0.518102 0.447391 0.472166
0.486581 0.383914 0.45488
0.433284 0.503067 -0.499378
0.45138 0.493105 0.480799
0.368491 -0.502689 0.446182
0.526612 0.428834 0.475455
-0.519199 0.432299 0.484164
0.426716 0.492455 0.457085
0.433313 0.477935 -0.449159
0.479746 0.473295 0.500544
0.444347 -0.48823 0.505313
0.47189 0.484549 0.415738
-0.565065 0.483189 0.4916
0.410922 0.47988 -0.542348
0.441677 0.495761 0.448741
0.459274 -0.437503 0.508771
0.539599 0.473517 0.424332
-0.545296 0.460514 0.500863
0.451581 0.47106 0.518537
0.464238 0.516506 -0.529844
0.480824 0.559796 0.49269
0.404351 -0.486778 0.549802
0.521029 0.468012 0.475357
-0.506561 0.459728 0.490697
0.458934 0.496993 0.467313
0.423838 0.488087 -0.426507
0.467542 0.47028 0.528887
0.392722 -0.423974 0.520047
0.481444 0.478385 0.52316
-0.500442 0.462377 0.494517
0.454017 -0.434759 0.535695
0.406291 -0.533665 -0.50253
0.524232 0.542476 -0.485812
0.391441 -0.489866 -0.542014
0.499591 0.425712 -0.506031
-0.520938 0.462354 -0.542465
0.432178 -0.495196 0.496904
0.433961 -0.484719 -0.541997
0.465429 0.529223 -0.443014
0.455608 -0.432163 -0.521321
0.463039 0.433661 -0.485077
-0.498676 0.487836 -0.511409
0.452886 -0.543217 0.486668
0.425046 -0.488768 -0.472732
0.467703 0.478883 -0.423218
0.471676 -0.477272 -0.496109
-0.448065 0.412029 -0.436947
0.45942 -0.476396 0.51143
0.463915 -0.512378 -0.487453
0.505901 0.5288 -0.506478
0.424476 -0.474904 -0.47661
0.430326 -0.470818 0.511862
0.501952 -0.503268 -0.502737
0.451305 -0.445929 -0.483675
0.556189 0.437698 -0.461567
0.415488 -0.478794 0.515448
0.461772 -0.494677 -0.484417
0.488592 0.440638 -0.495638
0.478556 -0.50014 -0.469885
0.462563 0.406832 -0.462485
-0.538422 0.426361 -0.455195
0.446721 -0.406218 -0.484457
0.460346 0.466562 -0.483463
0.450355 -0.460788 -0.385986
0.472437 0.492898 -0.467898
-0.498357 0.43023 -0.485673
0.442526 -0.398822 0.484127
0.442185 -0.44818 -0.5427
0.462072 0.522329 -0.38528
0.45111 -0.481687 -0.428575
0.471477 0.445062 -0.446703
0.469921 -0.36696 0.519878
0.442385 -0.474765 -0.497207
0.477759 0.526734 -0.368126
0.422099 -0.490292 -0.44636
0.493213 -0.418567 0.535292
0.478127 0.499533 -0.345155
0.498531 0.482618 -0.39928
0.487143 0.465182 -0.331397
0.475669 -0.397551 -0.491048
0.458113 0.522967 -0.411867
-0.530712 0.510842 -0.341032
0.491404 -0.375601 0.483936
0.413928 -0.366047 -0.50209
0.483276 0.430817 -0.342598
0.457247 -0.47562 -0.394627
0.487849 0.479139 -0.337452
-0.495714 0.443995 -0.39771
0.446639 -0.338045 -0.494017
0.476174 0.504082 -0.365176
0.468438 -0.329356 0.483353
0.468741 -0.534357 -0.386789
0.525253 0.416516 -0.416458
0.407648 0.540162 -0.358573
0.471301 -0.493434 -0.3395
0.45387 0.490771 -0.290391
0.4576 -0.323285 -0.520525
0.453523 -0.258505 -0.532461
0.463001 -0.291254 0.496366
0.461485 -0.50934 -0.295247
0.43544 -0.549075 -0.309186
0.397264 0.47951 0.252311
0.463696 -0.483911 0.261364
0.473284 0.449009 0.289682
0.476195 0.354559 0.479078
0.484117 0.286902 -0.47162
0.421221 0.521587 0.361945
0.461075 -0.48242 0.33489
0.540605 0.420798 0.376077
0.424126 0.363359 0.508999
0.45355 0.509563 0.320601
0.526579 0.463004 0.347651
0.484824 0.538189 0.364323
0.508599 0.408574 0.3583
-0.482758 0.424153 0.370056
0.470531 0.323686 0.497504
0.508319 0.496055 0.367484
0.496364 0.362529 0.499499
0.423936 0.341139 -0.501423
0.42624 -0.516612 0.410143
0.437803 0.412005 0.470868
0.471367 0.535826 0.324685
-0.5111 0.432766 0.408291
0.419485 0.31375 0.508632
0.490156 0.345631 -0.517446
0.458223 -0.481048 0.435994
0.546105 0.471768 0.340013
-0.434716 0.450016 0.353667
0.443627 0.414521 0.528669
0.478628 0.529796 0.36001
-0.481169 0.457086 0.397145
0.453986 0.39842 -0.421518
0.463934 -0.522809 0.444267
-0.471753 0.389688 0.462505
0.46011 0.414317 -0.521395
0.43756 0.484153 0.468933
0.441466 -0.495172 0.387859
0.499265 0.423215 0.42474
-0.460402 0.462136 0.431049
0.479622 0.402659 0.570428
0.481992 0.473737 -0.488138
0.509345 -0.494805 0.415628
0.543892 0.486103 0.477263
-0.488433 0.440361 0.446958
0.490998 0.487548 0.504389
0.495879 0.506544 0.414328
0.486817 0.454305 0.433154
-0.480454 0.458169 0.495885
0.465801 0.469865 0.515813
0.515573 0.463565 -0.496266
0.447375 0.498105 0.529468
0.462118 0.470592 0.511409
-0.51755 0.449668 0.399594
0.527958 0.4902 0.479813
0.467036 0.462332 -0.5125
0.419617 0.502048 0.445554
0.431042 -0.552204 0.400783
0.563742 0.53147 0.436152
-0.49581 0.425242 0.4961
0.412245 0.477763 0.494286
0.470542 0.472716 -0.497075
0.489568 0.517104 0.488179
0.450901 -0.480882 0.430117
0.485803 0.434699 0.436547
-0.488139 0.448195 0.461896
0.452405 0.464903 0.502455
0.478474 0.482482 -0.542398
0.450729 0.429058 0.477367
0.425897 -0.500229 0.490632
-0.471838 0.489905 0.457816
0.478009 0.462966 0.514634
0.462666 0.469985 -0.487188
0.464644 0.457372 0.468611
0.475917 -0.495431 0.505986
0.511188 0.479081 0.471168
-0.551021 0.470805 0.471001
0.495687 0.49118 0.47705
0.452222 0.475657 -0.457274
0.450813 0.513955 0.539611
0.460918 -0.514835 0.541725
0.492259 0.475795 0.510601
-0.451081 0.459055 0.468232
0.500151 -0.550813 0.46295
0.500661 -0.436746 -0.487734
0.480005 0.525454 -0.516268
0.479516 -0.477891 -0.518507
0.500447 0.494419 -0.504815
-0.488331 0.466684 -0.500993
0.465284 -0.542842 0.519928
0.535841 -0.505038 -0.51063
0.505876 0.490861 -0.470113
0.444881 -0.559998 -0.489923
0.517694 0.492891 -0.527142
-0.523321 0.481438 -0.49679
0.446219 -0.453501 -0.54967
0.482855 0.529575 -0.495841
0.429476 -0.54474 -0.41908
0.452182 0.437615 -0.463338
-0.50045 0.450278 -0.511366
0.398903 -0.443489 0.550644
0.421744 -0.480378 -0.491321
0.479025 0.502846 -0.540132
0.482242 -0.491305 -0.414643
0.506665 0.469078 -0.429285
-0.485694 0.458446 -0.470214
0.463735 -0.453811 0.530109
0.474406 -0.420616 -0.507103
0.522846 0.520501 -0.428111
0.467934 -0.518535 -0.472232
0.562456 0.521612 -0.420677
-0.463205 0.423086 -0.501118
0.488212 -0.428802 -0.462384
0.462245 0.497297 -0.424423
0.471149 -0.534011 -0.430911
0.520259 0.473243 -0.432357
-0.459808 0.48516 -0.466068
0.423918 -0.457029 0.495426
0.520572 -0.388629 -0.468958
0.518281 0.52255 -0.406903
0.483283 -0.491099 -0.48248
0.521627 0.45695 -0.490831
0.440909 -0.413454 0.436267
0.447573 -0.416844 -0.526481
0.427523 -0.454564 -0.383298
-0.545742 0.508171 -0.389664
0.437863 -0.384157 0.485306
0.449603 -0.460292 -0.516036
0.458363 0.516732 -0.455051
0.491477 0.407028 -0.384792
0.455789 -0.399611 0.556484
0.450512 -0.426382 -0.529712
0.465088 0.597739 -0.426948
0.448136 -0.49007 -0.40538
0.45547 0.469839 -0.415185
-0.410742 0.51553 -0.354092
0.442462 -0.467086 -0.495392
0.427014 0.490552 -0.437867
0.461379 0.524277 -0.402908
-0.516257 0.435487 -0.384701
0.431651 -0.399898 0.541548
0.46888 0.493625 -0.400592
0.561882 0.494752 -0.379755
0.459084 -0.400487 0.507801
0.520006 -0.353047 -0.46849
0.452362 0.442404 -0.369653
0.481234 -0.573589 -0.379423
-0.475555 0.433101 -0.381303
0.439326 -0.411538 0.459883
-0.485099 0.525247 -0.340188
0.54532 -0.366506 0.490489
0.423206 -0.355216 -0.476538
0.445614 0.488278 -0.30039
0.515336 -0.539508 -0.366611
0.481772 0.430919 -0.351375
-0.505324 0.436329 -0.336923
0.516881 -0.329726 -0.515016
0.51188 0.522882 -0.361493
-0.49936 0.481043 -0.32909
0.478815 -0.338915 -0.518151
0.45611 0.463493 -0.347441
0.482769 -0.344039 0.52982
0.452494 -0.297094 -0.42761
-0.528534 0.415522 -0.339264
0.472316 -0.346976 0.470564
0.432345 0.522807 -0.304993
0.451114 -0.519532 -0.400652
-0.556181 0.487003 -0.317913
0.475189 -0.291866 0.503852
0.511125 -0.577309 -0.299336
0.51059 -0.310794 -0.475799
0.478527 0.519496 -0.27181
0.521303 0.437784 -0.30441
-0.493053 0.482446 -0.335536
0.484064 -0.255359 0.536184
0.502076 -0.281081 -0.508863
0.500209 -0.553603 -0.314231
0.435302 -0.270795 -0.480414
-0.504672 0.473012 -0.302668
0.501547 -0.286214 -0.515976
0.492467 0.470723 -0.325959
-0.551361 0.451557 -0.272911
0.405214 -0.244415 0.501983
0.484957 -0.171995 0.527502
0.478233 -0.537145 -0.246093
0.540513 0.466279 -0.262786
0.522937 -0.17785 0.463719
0.493804 -0.227501 -0.527709
0.455788 0.470208 -0.215681
0.486135 -0.19691 0.490677
0.475397 -0.165555 -0.496936
0.476844 -0.183189 -0.553111
0.492047 0.168937 0.555932
-0.533167 0.449539 0.211786
0.428977 0.208651 -0.507237
0.487991 0.469111 0.277327
0.486559 0.30755 0.493908
0.441293 -0.489271 0.303975
0.461948 0.471468 0.279938
0.503718 -0.481078 0.277974
0.527392 0.419116 0.278615
0.431675 0.287465 0.53246
0.446964 0.31045 -0.476089
0.450211 0.454719 0.284915
-0.533913 0.492403 0.240346
0.44158 0.30986 -0.510577
0.447989 0.514128 0.326211
