ply
format ascii 1.0
comment sampling resolution: 0.01
comment noise level: 0.03
comment Created by Open3D
element vertex 1728
property double x
property double y
property double z
end_header
0.148483 -0.522669 0.506181
0.451983 0.154015 0.530826
-0.455846 0.106958 0.511499
0.129713 -0.538287 0.505067
0.0853728 -0.511079 -0.495908
0.124745 0.518462 -0.455698
0.159665 -0.478637 -0.509852
0.573778 0.173712 -0.500436
-0.565031 0.158814 -0.488594
0.14437 -0.521586 0.516774
0.107977 -0.441713 -0.488646
0.149128 0.481378 -0.460201
0.141507 -0.514068 -0.496175
0.504417 0.178433 -0.491297
-0.490144 0.116301 -0.442091
0.127266 -0.465712 0.504903
0.492637 0.16884 -0.460584
-0.530489 0.138838 -0.52522
0.100248 -0.496356 0.469746
0.138889 0.489646 -0.443284
0.149125 -0.522131 -0.479412
-0.465358 0.114006 -0.503838
0.172101 -0.416996 -0.502161
0.172008 0.482857 -0.423824
0.143278 -0.509894 -0.486166
0.490765 0.139513 -0.474496
-0.547247 0.139173 -0.472183
0.131546 -0.45683 0.491948
0.123231 -0.417495 -0.461249
0.487971 0.158163 -0.433969
0.0890058 0.46446 -0.432184
0.138407 -0.527094 -0.430892
0.151968 -0.407505 -0.531845
0.127159 0.538209 -0.366276
0.171834 -0.513427 -0.419169
0.174035 -0.385051 0.561234
0.202739 0.514105 -0.405171
0.4254 0.163852 -0.408979
0.166173 0.449121 -0.487882
0.165752 0.507623 0.416844
0.0987743 -0.46967 0.380394
0.154378 0.474035 0.474808
0.168601 0.516825 0.502553
0.123902 0.531814 0.440798
0.493982 0.213046 0.475621
0.153465 0.374409 -0.513288
0.179375 0.483768 0.471286
0.222783 -0.529287 0.426129
0.507571 0.11078 0.436
-0.485881 0.141809 0.467194
0.107439 0.514344 0.492868
0.15524 0.405847 -0.563342
0.145928 0.476609 0.491487
0.504118 0.126017 0.46844
-0.464555 0.129527 0.479563
0.173034 0.424376 0.516925
0.0965316 0.480286 -0.516777
0.136767 0.504867 0.453805
0.159842 -0.489089 0.483276
0.548542 0.192935 0.436943
-0.523579 0.168108 0.370557
0.166355 0.487711 0.489579
0.0968318 0.473156 -0.536509
0.161822 0.465031 0.432226
0.11865 -0.472908 0.487579
0.502656 0.15126 0.493231
-0.499624 0.184782 0.445079
0.191331 0.474293 0.488733
0.154122 0.518153 -0.516463
0.169804 0.457184 0.515726
0.193569 -0.491736 0.493718
0.492443 0.177177 0.519122
-0.474977 0.160695 0.464636
0.159839 0.509388 0.494126
0.175896 0.450489 -0.426502
0.165422 0.538801 0.490065
0.19008 -0.537391 0.48868
0.498623 0.11996 0.505687
-0.499316 0.14037 0.485673
0.112353 -0.445145 0.543246
0.142082 -0.482954 -0.44068
0.1871 0.492471 -0.507741
0.115253 -0.478423 -0.519055
0.502591 0.202867 -0.574304
-0.448773 0.211366 -0.491407
0.138547 -0.451462 0.504799
0.195585 -0.449937 -0.48912
0.163869 0.485746 -0.495543
0.186043 -0.502682 -0.505067
0.48445 0.152356 -0.522644
-0.46817 0.128426 -0.481358
0.144451 -0.518887 0.514855
0.178537 0.483241 -0.469212
0.116424 -0.465626 -0.4814
-0.499337 0.140736 -0.455282
0.143564 -0.428463 0.498267
0.16916 -0.446037 -0.515632
0.162909 0.485581 -0.470118
0.14259 -0.473769 -0.480975
0.494516 0.140252 -0.438507
-0.488296 0.163618 -0.41874
0.14453 -0.457259 0.504603
0.215172 0.464959 -0.436619
-0.507991 0.179827 -0.441819
0.179668 -0.4986 0.528825
0.133431 0.500865 -0.478491
0.573841 0.147202 -0.443742
-0.444908 0.166795 -0.412226
0.0985829 0.499919 -0.433491
0.119796 -0.585437 -0.514861
0.477858 0.136225 -0.418471
0.166984 -0.45645 0.487247
0.518996 0.142272 -0.456028
-0.48293 0.133581 -0.440093
0.156467 -0.396149 -0.490366
0.143457 -0.508181 -0.449909
0.119763 -0.431023 0.501147
-0.50678 0.177772 -0.394797
0.147828 0.522202 -0.405236
0.123616 0.445622 0.414298
0.167147 0.411237 0.540948
-0.503263 0.20637 0.382536
0.1802 0.409114 0.476376
0.191691 0.420431 -0.548033
-0.516884 0.149214 0.399311
0.166313 0.424269 0.497112
0.218483 0.414813 -0.49707
0.171138 0.520337 0.477443
0.533581 0.206803 0.459276
-0.442128 0.192899 0.394945
0.136777 0.431563 0.558436
0.166947 -0.50904 0.454665
0.462151 0.109803 0.462853
-0.450716 0.16557 0.458746
0.176966 0.483811 0.509439
0.167121 0.482292 -0.473373
0.148125 0.48274 0.453148
0.141107 -0.526478 0.412579
0.472684 0.181593 0.466932
-0.493133 0.207992 0.496482
0.165253 0.428096 0.537123
0.184765 -0.491927 0.481232
0.519675 0.0914172 0.496923
-0.482757 0.132349 0.438301
0.119201 0.474558 0.498677
0.200599 0.484149 -0.483966
0.13303 0.51974 0.483359
0.187493 -0.422284 0.406686
-0.508619 0.151644 0.491498
0.177358 0.463179 0.447661
0.171807 0.496338 -0.525434
0.149848 0.493071 0.543294
0.220211 -0.486702 0.488407
0.475081 0.150889 0.470083
-0.521754 0.117351 0.505477
0.117965 0.509556 0.46422
0.176333 0.444256 -0.494189
0.176499 0.489368 0.489386
0.193662 -0.539651 0.490828
0.490569 0.128933 0.472931
-0.512473 0.192099 0.499278
0.16405 -0.430938 0.51864
0.184374 -0.533808 -0.526843
0.125324 0.565821 -0.485072
0.190402 -0.483625 -0.467768
0.477438 0.132617 -0.508801
-0.492905 0.160928 -0.471126
0.110728 -0.516976 0.501781
0.174646 -0.482613 -0.508714
0.176194 -0.488149 -0.485286
0.48884 0.124866 -0.522213
0.166674 -0.451696 0.48413
0.180968 -0.489907 -0.530934
0.179265 0.567804 -0.490226
0.216868 -0.495242 -0.482662
0.459658 0.158249 -0.464043
-0.470354 0.21096 -0.523093
0.154475 -0.501536 0.512997
0.151627 -0.51003 -0.513527
0.242313 0.541564 -0.433524
0.489415 0.191336 -0.482996
0.177377 -0.449686 0.474227
0.14721 -0.486807 -0.534751
0.135139 -0.517822 -0.427505
0.446869 0.164088 -0.483887
-0.481365 0.157855 -0.444757
0.207461 -0.457775 -0.512947
0.184 0.487562 -0.388966
0.156036 -0.545749 -0.446978
-0.472372 0.13729 -0.483716
0.181992 -0.417928 -0.52439
0.122801 -0.494434 -0.428259
0.450087 0.118228 -0.414787
0.146634 -0.416114 -0.480552
0.174564 -0.544241 -0.425151
0.124034 -0.381946 -0.509233
0.175143 -0.521729 -0.420796
0.136487 -0.448832 0.510974
0.207208 0.490517 -0.438049
0.190205 -0.411662 -0.572832
0.112535 0.391599 -0.506456
0.22194 0.435638 -0.523785
0.156987 0.489475 0.376592
0.468939 0.195923 0.434081
-0.467593 0.178822 0.345799
0.155149 0.401583 0.523949
0.198353 0.404558 -0.476252
0.218988 0.501513 0.418065
0.154623 -0.479288 0.45628
-0.467524 0.201732 0.417141
0.153234 0.414629 0.511784
0.162275 -0.581393 0.454598
0.156634 0.459895 0.507681
0.123158 0.421455 -0.511516
0.506146 0.151459 0.437007
-0.480402 0.14447 0.420258
0.196776 0.474587 -0.513522
0.129983 0.490891 0.446888
0.16982 -0.462648 0.44485
0.501201 0.154936 0.478727
-0.496145 0.122038 0.452855
0.138743 0.44054 0.532886
0.164532 0.447146 -0.501775
0.183025 0.421787 0.483577
0.173517 -0.467382 0.4594
0.555725 0.14409 0.44289
-0.470579 0.141573 0.419343
0.163542 0.476552 0.532873
0.224253 0.488769 -0.488926
0.176989 0.542162 0.469129
-0.459017 0.209121 0.391022
0.18079 0.517181 0.505992
0.120054 0.515808 0.434647
0.175451 -0.460076 0.514913
0.516003 0.230653 0.480352
-0.48026 0.210945 0.468969
0.173841 0.487611 0.476455
0.151336 0.514492 -0.517575
0.187637 0.492884 0.492564
0.170828 -0.570774 0.526629
0.480902 0.17209 0.525158
-0.483809 0.163766 0.473674
0.129573 0.455784 0.473573
0.177803 0.499832 -0.477421
0.202041 0.52 0.458875
0.154338 -0.590215 0.498084
0.451704 0.194731 0.496146
-0.458321 0.175037 0.507218
0.191528 -0.513915 0.516915
0.169205 -0.460534 -0.534771
0.185554 0.527334 -0.512997
0.214378 -0.535876 -0.521711
0.497995 0.163122 -0.545798
-0.490845 0.201414 -0.536521
0.150495 -0.481215 0.44607
0.166819 -0.465508 -0.478553
0.185333 0.485567 -0.468193
0.487275 0.204343 -0.529441
-0.556729 0.256822 -0.440811
0.187959 -0.454753 0.451229
0.216758 -0.544904 -0.493656
0.14548 0.498435 -0.50153
0.22892 -0.518721 -0.488337
0.505761 0.177813 -0.488573
-0.51471 0.178147 -0.476031
0.187707 -0.448436 0.436768
0.178679 -0.523336 -0.436916
0.502948 0.182418 -0.45814
-0.475006 0.233607 -0.462053
0.144551 -0.444918 0.511479
0.144993 -0.498303 -0.46441
0.159998 -0.446171 0.545013
0.18367 -0.432954 -0.526474
0.12876 0.473051 -0.419428
-0.501457 0.170068 -0.440765
0.181974 -0.502695 -0.528572
-0.537149 0.177038 -0.506497
0.168225 -0.485836 -0.415447
-0.497598 0.216341 -0.429155
0.210004 -0.370751 0.496455
0.215603 0.435851 -0.348302
0.1721 -0.53151 -0.429763
0.161511 0.463605 -0.377524
0.191994 -0.567999 -0.425122
0.128016 0.530094 -0.406046
0.199305 -0.506896 -0.399046
-0.488528 0.172266 -0.425213
0.18931 0.583623 -0.409309
0.473421 0.168768 -0.354333
0.128672 0.422267 -0.510926
0.147439 -0.563401 0.386138
-0.52969 0.179492 0.431235
0.166741 0.533344 0.435078
-0.509294 0.160762 0.433783
0.165366 0.492804 0.495927
0.162791 0.508199 0.431837
0.185426 -0.53952 0.445319
0.526335 0.199927 0.461128
0.198279 0.482745 0.520624
0.229093 0.466624 -0.49196
0.163807 -0.488186 0.433784
0.460603 0.195582 0.404457
-0.491246 0.17517 0.393399
0.124111 0.443834 0.443605
0.129409 -0.524701 0.470824
-0.464044 0.170405 0.477598
0.175061 0.443377 0.488303
0.190745 0.539406 -0.503604
0.185176 -0.498203 0.52402
0.512863 0.171784 0.498341
-0.458617 0.180366 0.510762
0.195706 0.454685 0.45343
0.130817 0.536299 0.449522
0.166135 -0.50956 0.481511
0.487765 0.18667 0.481102
-0.518705 0.188655 0.4605
0.183927 0.481521 0.500779
0.159835 0.494683 -0.538738
0.171309 0.509094 0.475075
0.169905 -0.529175 0.47013
0.517489 0.188551 0.49153
-0.490792 0.124907 0.500533
0.13991 0.485583 0.511004
0.164318 0.493168 -0.507874
0.0932858 0.542657 0.503688
0.186069 -0.503833 0.470143
0.527703 0.24576 0.481628
-0.471276 0.185809 0.490988
0.193048 -0.48507 0.552511
0.235874 -0.45956 -0.49861
0.214266 0.52119 -0.493822
0.203208 -0.524942 -0.526987
0.51678 0.199825 -0.504727
-0.475203 0.182417 -0.53106
0.174944 -0.446666 0.488879
0.216524 -0.505235 -0.486171
0.178414 -0.508119 -0.512407
0.488163 0.193566 -0.513997
-0.467988 0.216704 -0.458283
0.252989 -0.485205 0.523972
0.207075 -0.478315 -0.522159
0.164648 0.506242 -0.435049
0.224156 -0.468604 -0.536663
0.513982 0.14403 -0.496788
-0.495462 0.199164 -0.476269
0.149021 -0.495601 -0.500047
0.151082 -0.484604 -0.487524
0.492721 0.194862 -0.486773
-0.525411 0.120069 -0.454338
0.143904 -0.456217 0.536111
0.174254 -0.461921 -0.493326
0.221388 -0.475408 -0.440041
-0.557558 0.17685 -0.436358
0.153343 -0.423683 0.461124
0.22928 -0.492955 -0.502583
0.212097 0.5219 -0.425022
0.166304 -0.48124 -0.416474
0.165216 -0.414719 0.465357
0.174804 0.534363 -0.478184
0.185095 -0.428119 0.467345
0.211648 -0.417573 -0.503007
0.176305 -0.51518 -0.42861
0.499657 0.170275 -0.433985
-0.395782 0.136371 -0.439841
0.184549 -0.455302 -0.532386
0.19641 -0.480699 -0.388001
-0.517212 0.133058 -0.374825
0.238804 -0.420699 0.519266
0.186509 0.514565 -0.407665
0.156533 -0.508006 -0.389973
0.487178 0.191441 -0.442147
0.179369 -0.379328 -0.474387
0.179419 0.472207 -0.410224
0.14587 0.513028 0.41483
-0.500416 0.189169 0.427268
0.229888 0.396667 0.462023
0.473882 0.156048 0.374209
0.221073 0.391855 0.502843
0.190038 0.481944 0.422866
0.189044 -0.492551 0.393178
-0.499582 0.17548 0.450751
0.215796 0.434989 0.465538
0.206381 0.41008 -0.443867
0.145084 -0.517317 0.412619
-0.501078 0.217165 0.450495
0.207259 0.49603 0.501779
0.151945 0.474078 0.450906
0.199082 0.471554 0.536442
0.134947 0.468941 -0.474287
0.477098 0.178111 0.428268
-0.471678 0.204491 0.43057
0.163779 0.443859 0.536616
0.18945 0.484911 -0.512353
-0.505972 0.197951 0.431142
0.181604 0.440222 0.547923
0.225009 0.490283 -0.554754
0.173768 0.521939 0.483795
0.189368 -0.546379 0.460529
-0.49344 0.190237 0.555847
0.175306 0.503188 0.52674
0.212862 0.485928 -0.467295
0.18597 0.546789 0.551557
0.212258 -0.48977 0.436154
0.506008 0.199055 0.498235
-0.495588 0.19292 0.507164
0.14988 0.527152 0.492316
0.231043 0.486031 -0.485767
0.188501 0.472506 0.447873
0.171968 -0.489287 0.471502
0.493857 0.158145 0.525202
-0.525807 0.20412 0.483289
0.107125 0.531382 0.508978
0.238538 0.45939 -0.526658
0.138713 0.432304 0.471889
0.18083 -0.48908 0.500307
0.531154 0.165248 0.481937
-0.472174 0.162848 0.538191
0.184609 -0.534752 0.481603
0.173447 -0.516897 -0.512842
0.263245 0.518646 -0.493792
0.20456 -0.46749 -0.525454
0.497212 0.146945 -0.531024
-0.419473 0.198822 -0.541061
0.246566 -0.477972 0.571884
0.177524 -0.431372 -0.444894
0.222397 0.459366 -0.49583
0.13099 -0.451658 -0.456627
0.438426 0.172217 -0.430342
-0.512646 0.232488 -0.470511
0.194238 -0.456205 0.501466
0.183815 -0.529254 -0.520641
0.188866 0.453575 -0.452889
0.209546 -0.504004 -0.474716
-0.612771 0.18955 -0.490607
0.193326 -0.476558 0.505727
0.221618 -0.493052 -0.468381
0.195868 0.490168 -0.495343
0.243924 -0.472875 -0.444826
0.512689 0.200652 -0.529495
-0.518363 0.189119 -0.461521
0.493343 0.175805 -0.470716
-0.516302 0.216771 -0.412244
0.256954 -0.472277 0.479356
0.229059 -0.429843 -0.563202
0.276203 0.572121 -0.438798
0.145655 -0.459392 -0.47227
0.223766 -0.410903 0.497071
0.20553 -0.488154 -0.440849
0.509823 0.216671 -0.470972
-0.476874 0.244231 -0.434681
0.161279 -0.420823 0.523146
0.161591 -0.390254 -0.539126
0.458175 0.185662 -0.451705
0.540377 0.178422 -0.40551
-0.48541 0.224919 -0.431206
0.178559 -0.368435 0.508405
0.154103 0.508766 -0.385663
0.164142 -0.473448 -0.422087
0.174631 -0.462591 -0.363798
0.189017 -0.444327 -0.380799
0.219715 0.36947 0.474601
-0.524526 0.209013 0.37401
0.205882 0.433583 -0.5107
-0.494103 0.204296 0.389234
0.208584 0.455206 -0.516224
0.198734 -0.495299 0.425128
0.465628 0.184927 0.380013
0.166442 0.392364 -0.517795
0.221673 0.52625 0.471579
0.564056 0.222877 0.431225
0.241639 0.390973 0.478388
0.154792 0.46797 -0.489678
0.208149 0.517313 0.395182
0.481935 0.244036 0.41438
-0.542822 0.189385 0.441425
0.154532 0.471168 0.498499
0.174057 -0.504199 0.429646
0.467498 0.222244 0.431791
0.176486 0.528621 0.468978
0.180516 -0.500616 0.457162
0.48519 0.211716 0.429455
-0.509935 0.26458 0.375
0.192701 0.43692 -0.437666
0.219108 0.477638 0.473434
0.167105 -0.520727 0.455148
-0.541777 0.228167 0.446035
0.201509 0.48354 0.454377
0.187406 0.507867 0.416227
0.204268 -0.519479 0.438877
0.524456 0.222885 0.453457
-0.43457 0.239607 0.414448
0.214458 0.45781 0.503801
0.173046 0.504196 -0.454774
0.152508 -0.509392 0.446494
-0.52612 0.170008 0.530617
0.174463 0.489032 0.527981
0.172983 0.541147 0.502058
0.212223 -0.490165 0.517978
0.581265 0.16783 0.455832
-0.487542 0.144433 0.467548
0.175149 0.478211 0.481847
0.199893 0.455952 -0.48143
0.238618 0.474563 0.423537
0.194828 -0.488113 0.489115
0.527892 0.20138 0.511955
-0.511504 0.215005 0.560926
0.1838 -0.570173 0.527537
0.23123 -0.4464 -0.55673
0.191617 0.550932 -0.523245
0.174269 -0.500802 -0.568608
0.537028 0.18475 -0.464556
-0.504812 0.183774 -0.47895
0.186434 -0.477645 0.518283
0.224569 -0.509145 -0.489909
0.236037 0.518457 -0.49204
0.211206 -0.483189 -0.510002
0.531235 0.21552 -0.486191
-0.472326 0.218954 -0.450821
0.146368 -0.474416 0.495216
0.20442 -0.543465 -0.491331
0.188529 0.471351 -0.545694
0.215726 -0.468914 -0.485133
-0.512923 0.231311 -0.433907
0.237887 -0.446615 0.487514
0.186414 -0.419446 -0.516994
0.210261 0.496037 -0.498663
0.17812 -0.444454 -0.491838
0.165962 -0.455037 0.523317
0.222862 -0.431571 -0.515436
0.523551 0.20628 -0.445691
-0.551697 0.246102 -0.424201
0.209909 -0.467183 0.506051
0.218083 -0.430681 -0.526286
0.159952 0.482581 -0.440285
0.200147 -0.477256 -0.451192
0.503 0.174595 -0.423011
-0.50312 0.200933 -0.431945
0.172246 -0.443095 0.529796
0.209184 0.452792 -0.433314
0.218272 -0.498919 -0.437797
0.486968 0.186124 -0.403748
0.175844 -0.444617 -0.450707
0.564894 0.186598 -0.404392
-0.459183 0.166149 -0.420108
0.20354 -0.538395 -0.41257
0.217462 -0.414528 0.483672
0.170198 -0.365901 -0.471743
0.499862 0.212143 -0.389058
0.470354 0.172772 -0.386646
0.175311 -0.385407 0.478212
0.198879 0.514332 -0.290936
0.185992 0.319495 -0.529772
0.250041 0.348849 0.481396
-0.533905 0.245499 0.336829
0.177635 0.503808 0.403905
0.177125 0.37348 -0.463959
0.24409 0.495014 0.438325
-0.520189 0.123089 0.42943
0.207798 0.469965 0.530189
0.206749 0.501873 0.398519
0.509198 0.213228 0.401589
-0.45599 0.190209 0.422751
0.478881 0.199692 0.419843
0.218925 0.446269 -0.462824
0.516935 0.210419 0.454375
0.229098 0.43538 0.492658
0.21353 -0.502064 0.434733
0.529574 0.203693 0.413422
0.203168 0.414096 -0.485622
0.215843 0.525873 0.462999
0.200404 -0.497405 0.476447
0.541367 0.196813 0.479
-0.439596 0.230813 0.454361
0.221341 0.43272 0.486545
0.196547 0.446474 -0.54155
0.275498 0.489776 0.414193
0.236619 -0.515597 0.413272
0.498577 0.208113 0.46978
0.154109 0.420613 0.485479
0.207716 0.483972 -0.467352
0.228431 -0.525506 0.47302
0.50191 0.23497 0.428066
-0.468962 0.200285 0.473148
0.274951 0.454679 -0.533679
0.1542 0.511382 0.507298
0.191213 -0.523438 0.466822
0.513221 0.261135 0.451003
-0.461437 0.193938 0.461397
0.201552 0.472455 0.457393
0.185614 0.476636 -0.520537
0.243652 0.49996 0.555498
0.233549 -0.530938 0.47197
0.457391 0.145621 0.519447
-0.531854 0.162916 0.466394
0.17779 0.479917 0.463056
0.211661 0.512878 -0.471831
0.218893 0.507205 0.519038
0.2323 -0.508912 0.510008
0.452403 0.261329 0.531487
-0.531489 0.263882 0.524888
0.26784 -0.414675 0.467768
0.226782 -0.540526 -0.502946
0.147147 0.513472 -0.55148
0.187081 -0.463646 -0.493782
0.436933 0.244829 -0.464022
-0.531915 0.255625 -0.473128
0.216762 -0.475882 -0.487157
0.198019 0.550883 -0.524304
0.176286 -0.498136 -0.480084
0.47415 0.16347 -0.486097
-0.519114 0.261885 -0.460886
0.187566 -0.51126 -0.507802
0.197752 0.522774 -0.472556
0.208079 -0.529823 -0.455077
0.524169 0.23278 -0.476782
-0.560187 0.207342 -0.54088
0.215492 0.471208 -0.467876
0.212882 -0.498279 -0.42677
0.523584 0.302518 -0.453306
-0.454202 0.240359 -0.495944
0.235103 -0.463123 -0.501507
0.182797 0.500955 -0.435933
0.248309 -0.526342 -0.432334
0.198362 -0.450277 -0.446307
0.211956 -0.428264 0.443525
0.184309 -0.469296 -0.527902
0.199091 -0.490583 -0.476592
0.460354 0.220065 -0.442888
0.214311 -0.377652 0.48568
0.195219 -0.442696 -0.482732
-0.495055 0.222201 -0.402799
0.204583 -0.424998 0.481861
0.223672 -0.389939 -0.464319
0.222884 -0.499253 -0.334035
-0.541765 0.19004 -0.392954
0.187 -0.437295 0.472008
0.248552 0.474489 -0.422031
0.183788 0.548724 -0.38887
0.222063 -0.488415 -0.456741
0.518865 0.229634 -0.393174
0.170136 -0.396051 0.459818
0.512389 0.226734 -0.387343
0.186983 0.465079 0.368429
0.262532 0.401453 -0.531799
0.241304 -0.493655 0.402856
0.210229 -0.454732 0.362818
0.485047 0.186775 0.445684
-0.522537 0.186998 0.358589
0.220306 0.40975 0.507303
0.193224 0.410657 -0.516722
0.207796 0.487677 0.418654
0.233744 0.388704 0.536086
0.222 0.518177 0.402298
0.573138 0.191183 0.450506
0.238626 0.393987 0.512058
0.236755 0.495039 0.451753
0.219189 -0.52519 0.424587
-0.551493 0.187499 0.435259
0.21901 0.404248 -0.510725
0.187199 0.376908 0.4339
0.233691 -0.481817 0.467376
-0.465225 0.23157 0.439956
0.243533 0.434531 0.505036
0.231455 0.479315 -0.479757
0.209182 -0.545155 0.472353
0.547011 0.244578 0.434889
-0.516398 0.201253 0.429897
0.197618 0.44666 0.522076
0.215303 0.427937 -0.479521
0.277396 0.480908 0.476426
0.51454 0.192611 0.435819
-0.52786 0.184069 0.461965
0.236085 0.497163 0.498897
0.275209 0.481935 -0.556884
0.175462 0.484701 0.482759
0.222677 -0.526707 0.532344
0.525533 0.222014 0.497504
-0.476563 0.232199 0.481567
0.263189 0.432656 0.500947
0.183378 0.472933 0.475782
0.190567 -0.493032 0.424284
0.527844 0.151607 0.528272
-0.502894 0.225394 0.48651
0.229859 0.450478 0.436538
0.201575 0.489915 -0.493348
0.256945 0.524526 0.453168
0.237355 -0.52888 0.488987
0.494495 0.212099 0.486007
-0.503246 0.202257 0.480772
0.217851 0.537377 0.486072
0.257216 0.519179 -0.48315
0.259982 0.502437 0.471924
0.181165 -0.52424 0.521882
0.464794 0.214843 0.520312
-0.485704 0.199456 0.481075
0.179109 -0.502045 0.496039
0.221828 -0.476499 -0.441258
0.155677 0.486774 -0.456984
0.239071 -0.453742 -0.487679
0.521442 0.303463 -0.491232
-0.471447 0.269554 -0.529276
0.259333 -0.440865 0.46746
0.198243 -0.48251 -0.488457
0.223432 0.450495 -0.447956
0.230927 -0.490346 -0.453234
0.490112 0.254072 -0.457854
-0.459256 0.281856 -0.472459
0.222249 -0.440109 0.47353
0.241454 -0.450322 -0.49403
0.494547 0.269864 -0.477953
-0.504038 0.233158 -0.556501
0.224805 -0.484587 -0.537349
0.181417 0.468072 -0.441021
0.268971 -0.548275 -0.406561
0.510081 0.270665 -0.409706
0.231933 -0.500083 0.479202
0.25001 -0.410379 -0.562938
0.238065 -0.50571 -0.449636
0.50034 0.246584 -0.435934
-0.485829 0.265771 -0.46661
0.255065 -0.43634 0.538686
0.214486 -0.494255 -0.514705
0.223065 -0.497662 -0.459998
0.479412 0.201727 -0.553381
-0.564097 0.20734 -0.434886
0.212793 -0.445959 -0.504079
0.218062 -0.518167 -0.434689
0.182359 -0.445671 0.505891
-0.493665 0.234581 -0.395618
0.256639 -0.397899 -0.491879
0.21275 -0.50422 -0.414073
0.514622 0.269361 -0.387017
0.23048 0.48815 -0.438647
-0.507679 0.214072 -0.423042
0.263206 -0.361866 0.514766
0.240963 0.53598 -0.362043
0.212628 0.509985 -0.383988
0.486782 0.262201 -0.375171
0.181174 0.383057 -0.493498
0.472458 0.283241 0.416886
-0.466576 0.186386 0.360334
0.253242 0.408412 0.496118
0.267126 0.436336 -0.492092
0.245112 0.406271 -0.483268
0.448885 0.219093 0.440184
0.221778 0.3932 0.508411
0.193564 0.390046 -0.520927
0.209906 -0.457626 0.436191
0.482153 0.203881 0.3807
0.164891 0.432518 0.461932
0.239085 -0.46555 0.426301
0.507064 0.207325 0.449074
0.458389 0.238651 0.471151
-0.481026 0.245396 0.4115
0.188728 0.432035 0.497306
0.247171 0.493274 -0.463347
0.164007 0.468536 0.471548
0.507295 0.226351 0.400103
-0.492228 0.225428 0.425489
0.206007 0.515352 0.438138
0.252934 -0.534992 0.423635
0.477068 0.207878 0.408253
-0.473424 0.256838 0.480622
0.231539 0.51104 0.472541
0.24093 0.433327 -0.51708
0.234299 0.454861 0.4418
0.241279 -0.485427 0.444515
0.534833 0.22644 0.454695
-0.506359 0.210407 0.475055
0.214568 0.480345 0.507011
0.195408 0.502273 0.554082
0.213979 -0.503538 0.535522
-0.508155 0.280558 0.493394
0.240354 0.409903 0.509352
0.243455 0.467466 -0.482298
0.230496 0.508107 0.502911
0.207782 -0.515795 0.520524
0.499219 0.171499 0.536708
-0.508591 0.257699 0.463173
0.195814 0.437964 0.502643
0.197224 0.471907 -0.476001
0.229577 0.509911 0.494213
0.183539 -0.465056 0.475648
0.488911 0.232261 0.508474
-0.505366 0.200711 0.510884
0.248413 -0.492813 0.558508
0.242506 -0.469 -0.521546
0.236536 0.494536 -0.47347
0.246392 -0.502024 -0.534488
0.449541 0.224111 -0.515264
-0.521557 0.244779 -0.43028
0.221197 -0.532933 0.471439
0.22808 -0.450388 -0.517854
0.239512 -0.530665 -0.52763
0.541496 0.235564 -0.512732
-0.541501 0.303665 -0.493293
0.198993 -0.473971 0.506808
0.250774 -0.412241 -0.522336
0.181492 0.493672 -0.431428
0.498668 0.2481 -0.464642
0.228214 -0.475057 -0.512465
0.221594 0.48892 -0.494808
0.482885 0.282807 -0.440863
-0.511935 0.238091 -0.507156
0.244133 -0.413474 0.541136
0.22835 0.47127 -0.404923
0.220806 -0.4712 -0.473721
0.52523 0.236404 -0.442977
0.228528 -0.380939 -0.492979
0.31664 0.520936 -0.454325
0.219403 -0.518791 -0.435809
0.484098 0.241652 -0.4898
-0.519201 0.244204 -0.481191
0.232128 -0.394198 0.523873
0.209382 -0.442916 -0.493964
0.202877 -0.479597 -0.44288
-0.519927 0.28231 -0.381511
0.261704 -0.43495 0.471274
0.238416 -0.426998 -0.504404
0.224088 0.489367 -0.37401
0.181216 -0.473337 -0.432911
-0.494888 0.220338 -0.407981
0.274527 -0.439324 0.469756
0.261572 -0.445266 -0.555455
0.239372 0.490462 -0.382656
-0.513221 0.278798 -0.447829
0.261006 -0.431014 0.559923
0.206157 0.515613 -0.411432
-0.524476 0.265031 -0.39547
0.256329 -0.41402 0.501726
0.255674 -0.423677 0.527641
0.229207 -0.48191 -0.390234
0.2287 0.499224 -0.387416
0.194553 0.344887 -0.479758
0.249627 0.496454 0.367315
0.221941 0.507353 0.384302
0.247338 0.340758 -0.538059
0.510453 0.204507 0.436359
0.214164 -0.515044 0.43391
0.246065 0.401949 0.519621
0.270797 0.397364 0.482839
0.220001 0.437334 -0.572557
0.501049 0.168697 0.440728
0.194878 0.462342 0.574029
0.265288 0.450846 -0.482559
0.230184 0.488461 0.392392
0.45517 0.28256 0.370652
-0.461596 0.254046 0.405467
0.254704 0.469291 0.492461
0.247252 0.428962 -0.524065
0.241588 -0.529743 0.430074
-0.532085 0.228834 0.444354
0.174762 0.48045 0.480534
0.242118 0.474378 -0.499132
0.250783 0.532227 0.424138
0.543914 0.210427 0.453218
0.227082 0.49765 -0.453246
0.205807 0.538325 0.46828
0.242873 -0.536442 0.431028
0.472641 0.222632 0.461967
-0.520374 0.238894 0.421576
0.205424 0.517278 0.50772
0.241311 0.454536 -0.524098
0.306995 0.50754 0.441092
0.218737 -0.501605 0.460663
-0.486353 0.240255 0.532184
0.232741 0.444892 0.532144
0.277702 0.508604 -0.508231
0.256789 0.478748 0.456531
0.201351 -0.54146 0.450498
0.49762 0.222089 0.483266
-0.452757 0.232428 0.492091
0.26099 0.483047 0.553688
0.276355 0.498088 -0.46437
0.228804 0.490254 0.557725
0.228048 -0.505218 0.520617
0.461407 0.249649 0.500053
-0.533055 0.205377 0.516515
0.219551 0.51606 0.477765
0.207694 0.514538 -0.511208
0.225137 0.520536 0.457587
0.240203 -0.546954 0.514863
0.477243 0.253557 0.476537
-0.476973 0.257749 0.510598
0.251145 -0.5487 0.539491
0.226878 -0.456079 -0.490833
0.250161 0.513156 -0.513223
0.252821 -0.51533 -0.463294
0.535296 0.257217 -0.473671
-0.540731 0.159991 -0.449235
0.248639 -0.534476 0.469954
0.307531 -0.499425 -0.541028
0.24252 0.456853 -0.494143
0.170174 -0.482503 -0.552337
0.484029 0.226215 -0.467669
-0.518437 0.1995 -0.464805
0.263945 -0.4908 0.466597
0.17738 -0.450604 -0.49386
0.253779 0.471211 -0.474148
0.177096 -0.560556 -0.499161
-0.522733 0.253198 -0.491056
0.260061 -0.453149 0.489889
0.237975 -0.465088 -0.518961
0.276897 0.491743 -0.470381
0.23676 -0.56817 -0.418069
0.521647 0.215079 -0.467467
0.222329 -0.440468 -0.498058
-0.468516 0.207534 -0.476536
0.227019 -0.443295 0.500279
0.272656 0.555269 -0.452746
0.516752 0.224429 -0.415493
-0.551137 0.261687 -0.484823
0.250554 -0.396318 0.49717
0.229049 -0.456107 -0.515372
0.263292 -0.548805 -0.45148
0.466172 0.25843 -0.442004
-0.499211 0.238371 -0.41928
0.25645 -0.412187 0.445858
0.218306 -0.458085 -0.462024
0.509396 0.267975 -0.464306
-0.494398 0.296908 -0.393966
0.269546 -0.411114 0.498352
0.211559 0.526378 -0.411169
0.25623 -0.524891 -0.374612
0.539021 0.306163 -0.428276
-0.502269 0.227101 -0.373807
0.332133 0.467183 -0.388967
0.253561 -0.511808 -0.414202
0.511954 0.263586 -0.456691
-0.466352 0.208362 -0.382604
0.226966 -0.549944 -0.347356
0.244839 0.495414 -0.408277
0.517731 0.268655 -0.352431
-0.530807 0.255051 -0.408255
0.293675 0.514014 -0.381871
0.206316 -0.511824 -0.308657
0.527201 0.283663 -0.367445
0.199199 -0.5383 -0.393043
0.247949 0.327014 0.494476
-0.454889 0.253446 0.332937
0.257505 0.371655 -0.489054
0.216984 -0.530422 0.378239
0.227864 0.322237 0.515176
0.271279 0.459762 0.363709
0.176455 -0.533267 0.351898
-0.551347 0.253161 0.397863
0.290384 0.41103 0.463917
0.278669 0.393441 -0.507999
0.233496 -0.540515 0.423921
0.273462 0.378145 0.512546
0.249372 0.491589 0.553419
0.249645 0.415855 -0.516821
0.253714 -0.447523 0.47
0.239028 0.413524 0.537359
0.234285 0.412925 -0.51283
0.256179 -0.448961 0.398507
0.229088 0.409858 -0.52348
0.470456 0.255053 0.440647
-0.510442 0.200557 0.466662
0.220678 0.464272 0.521286
0.274943 0.442064 -0.520425
0.28026 0.498078 0.447002
0.260882 -0.49838 0.472697
0.518463 0.201215 0.468702
-0.485818 0.259822 0.452835
0.220156 0.451011 0.517604
0.250356 0.418383 -0.54427
0.233791 -0.504025 0.504521
-0.48686 0.200667 0.422221
0.249613 0.491304 0.587049
0.27698 0.451857 0.482371
0.479855 0.24353 0.476712
0.252909 0.435129 0.535103
0.265227 0.471391 -0.500924
0.290115 0.515193 0.47521
0.253508 -0.419156 0.448866
0.497783 0.234732 0.447654
-0.524888 0.209423 0.510949
0.260328 0.487187 0.512697
0.216451 0.46985 -0.471587
0.204834 0.4856 0.477588
0.240098 -0.451141 0.480917
0.494271 0.191497 0.469715
-0.48923 0.263233 0.526749
0.257002 0.554405 0.489049
0.242771 0.455012 -0.497781
0.281057 0.43435 0.51477
0.231454 -0.51072 0.502552
0.51975 0.272309 0.475336
-0.484148 0.241117 0.542928
0.249598 -0.513343 0.513365
0.281109 -0.500251 -0.493485
0.26214 0.456921 -0.43903
0.213005 -0.510466 -0.47837
0.498799 0.209249 -0.502915
-0.496991 0.285863 -0.52054
0.211618 -0.45099 0.50326
0.269672 -0.451347 -0.476898
0.242218 0.461108 -0.461217
0.271512 -0.500479 -0.502168
0.560573 0.291001 -0.487116
-0.493641 0.262189 -0.462234
0.271384 -0.475733 0.488748
0.255356 -0.493668 -0.489487
0.258724 0.496281 -0.470657
0.511409 0.246552 -0.507547
-0.489012 0.304367 -0.499025
0.300749 -0.442409 0.503129
0.241966 -0.484925 -0.488875
0.207125 0.542245 -0.455305
0.279769 -0.531361 -0.467452
0.520221 0.26325 -0.503524
-0.536623 0.270942 -0.499108
0.282957 -0.434723 0.507059
0.223809 -0.420875 -0.51896
0.237053 0.449206 -0.410247
-0.489294 0.247879 -0.482497
0.287166 -0.460018 0.485263
0.19834 0.541484 -0.427466
-0.522729 0.269149 -0.402908
0.271586 -0.446772 0.493552
0.300416 -0.449222 -0.481397
0.271775 0.466268 -0.412681
0.243998 -0.530134 -0.417426
0.232683 -0.441361 0.494141
0.241715 0.495873 -0.395702
0.256911 -0.451176 -0.406627
0.453615 0.267533 -0.336468
0.204403 -0.43785 0.471333
0.271912 -0.388778 -0.483314
0.217027 0.516009 -0.426817
-0.468338 0.280445 -0.496537
-0.481455 0.271812 -0.355737
0.266668 -0.406588 0.53633
0.294476 -0.457964 -0.399747
0.306794 -0.342683 0.537055
0.244911 -0.526846 -0.393414
0.265489 -0.521018 -0.334165
0.231893 0.4536 -0.36337
0.22931 -0.288172 0.482711
0.258769 -0.371762 -0.510091
0.298408 0.317696 -0.529454
0.192952 0.33265 0.514828
0.205122 0.366292 0.49847
0.321109 0.397025 0.553426
0.20923 0.395275 -0.496307
0.268896 -0.521934 0.389319
0.483332 0.255021 0.43367
0.237715 0.432605 0.500187
0.255283 0.475164 -0.479934
0.283782 -0.469004 0.344005
-0.50806 0.213048 0.398955
0.294939 0.443018 0.531603
-0.559266 0.294721 0.416717
0.308992 0.469402 0.476475
0.214562 0.447312 -0.488882
0.26062 0.547913 0.447988
0.231234 -0.525432 0.459462
0.459264 0.275716 0.454265
-0.512638 0.248011 0.464546
0.243647 0.450604 0.507171
0.318173 0.44566 -0.457638
0.228283 0.477948 0.46827
0.267722 -0.517783 0.484174
-0.491226 0.213887 0.447944
0.283496 0.442677 0.490011
0.264119 0.486531 -0.546143
0.280267 0.468343 0.460477
0.206063 -0.506563 0.451312
-0.520382 0.265805 0.434663
0.240316 0.521371 0.489437
0.270808 0.505175 -0.45368
0.240751 0.575687 0.491852
0.281784 -0.464104 0.457937
0.541158 0.275992 0.459213
-0.488105 0.220185 0.526375
0.292546 0.449334 0.506672
0.260569 0.49793 -0.478146
0.228357 0.518739 0.487659
0.308537 -0.48673 0.501103
0.494695 0.251039 0.481053
0.280792 0.533544 0.450478
0.279894 0.515444 -0.502829
0.306763 0.48097 0.438638
0.264394 -0.482315 0.486167
0.481937 0.261035 0.503582
-0.490156 0.209447 0.509833
0.273278 0.508906 0.542344
0.188793 0.482105 -0.460072
0.255399 0.467691 0.56695
0.250552 -0.505116 0.512789
0.499037 0.281959 0.487659
-0.486816 0.233035 0.495877
0.242083 -0.501581 0.494773
0.276955 -0.529939 -0.498108
0.298728 0.505463 -0.461896
0.242657 -0.513937 -0.483057
0.531628 0.274541 -0.497845
-0.518414 0.240267 -0.553801
0.252731 -0.475211 0.577764
0.261803 -0.475813 -0.455591
0.243908 0.512951 -0.438886
0.255172 -0.485213 -0.500566
0.507537 0.236767 -0.471966
0.281292 -0.505211 0.537003
0.290828 -0.453623 -0.500964
0.273915 0.494693 -0.443167
0.297848 -0.461567 -0.495056
0.507539 0.219417 -0.493544
-0.472168 0.224517 -0.523858
0.256618 -0.463538 0.50431
0.247686 -0.468401 -0.534334
0.216878 -0.552447 -0.476377
0.442734 0.216677 -0.505459
-0.490558 0.268798 -0.488166
0.259416 -0.531228 0.500044
0.290856 -0.448196 -0.511034
0.225655 0.493319 -0.475332
0.270183 -0.521304 -0.468283
0.522699 0.314564 -0.430576
-0.516613 0.31879 -0.476305
0.278081 -0.44565 0.488788
0.261866 -0.483733 -0.454203
0.344556 0.470732 -0.444404
0.272255 -0.533002 -0.39793
0.483878 0.259037 -0.469829
-0.469944 0.218205 -0.483682
0.264707 -0.413135 0.556679
0.275075 -0.485601 -0.494192
0.235922 0.527125 -0.463409
0.253124 -0.510531 -0.412224
-0.516014 0.272265 -0.430942
0.298073 -0.355519 0.52707
0.310463 -0.442856 -0.548523
0.258116 0.504878 -0.403297
0.267041 -0.457737 -0.424184
-0.506374 0.289477 -0.472072
0.284257 -0.466905 0.485764
0.275637 -0.430137 -0.543161
-0.519464 0.248295 -0.412497
0.311375 -0.443019 0.529383
0.459013 0.300325 -0.401539
0.291097 -0.410712 -0.489035
0.241548 -0.464742 -0.40656
0.490158 0.248575 -0.349592
0.195749 -0.382173 0.508191
0.237983 -0.388449 -0.530875
0.228361 -0.41085 -0.497297
0.269719 -0.379053 -0.551209
0.246397 0.538909 -0.440997
0.231812 -0.322893 0.541564
0.260582 -0.385651 0.542688
0.258853 -0.329431 -0.475135
0.232582 -0.530403 -0.327811
0.458212 0.195845 0.39571
0.514696 0.255632 0.357829
-0.493878 0.338389 0.389774
0.252558 0.346743 0.484678
0.248753 0.372055 -0.568009
0.225831 0.332171 0.473759
0.279148 0.379303 -0.499243
0.265272 -0.471216 0.368193
0.499441 0.359703 0.414828
-0.498755 0.268785 0.41082
0.27945 0.31448 0.479875
0.523654 0.295332 0.420803
-0.505405 0.218538 0.414675
0.339238 0.379305 -0.524536
0.256953 0.50426 0.39793
0.49511 0.299326 0.383131
-0.556045 0.249172 0.38442
0.236401 0.397903 0.53053
0.28376 0.492845 0.39885
0.55605 0.279243 0.409512
0.271024 0.411915 -0.499706
0.281237 0.477331 0.439808
0.265227 -0.52051 0.363809
0.487268 0.290243 0.396138
-0.472561 0.244114 0.41116
0.263715 0.441301 0.512421
0.48389 0.244118 0.422667
-0.525039 0.254107 0.42714
0.29727 0.484509 -0.477613
0.475295 0.264611 0.424051
-0.499203 0.284011 0.424724
0.270294 0.462113 0.494987
0.289534 0.461469 -0.471099
0.289626 -0.544867 0.418291
0.470873 0.267155 0.466936
-0.533288 0.301041 0.379093
0.304274 0.477249 0.512255
0.338212 0.418227 -0.499802
0.239789 0.449741 0.497974
0.268742 -0.473991 0.513935
0.552782 0.262855 0.457928
-0.515573 0.340134 0.480025
0.259311 0.482317 0.572213
0.236748 0.489205 0.480612
0.202729 -0.527658 0.486381
0.51768 0.306682 0.464029
-0.479763 0.29658 0.43541
0.273048 0.513626 0.522778
0.228536 0.47296 -0.495923
0.226619 0.52004 0.511508
0.255398 -0.52257 0.502851
0.494886 0.262126 0.422867
-0.515351 0.242025 0.459911
0.315682 0.49228 0.517607
0.250714 0.496871 -0.542361
0.207753 0.491301 0.492917
0.238508 -0.444086 0.469554
0.48609 0.265126 0.519663
-0.504912 0.26711 0.468462
0.267361 0.41227 0.499069
0.301513 0.491621 -0.546095
0.210591 0.486035 0.442342
0.199601 -0.452296 0.530193
0.477082 0.215071 0.526252
-0.454787 0.195061 0.442732
0.230441 -0.511609 0.491673
0.235679 -0.506711 -0.566895
0.267547 0.52234 -0.469964
0.275426 -0.471069 -0.510189
0.481942 0.281382 -0.435461
-0.499217 0.297142 -0.542244
0.269359 -0.55497 0.511833
0.22952 -0.443927 -0.522015
0.317664 0.50475 -0.521858
0.270451 -0.472899 -0.493872
0.502212 0.28174 -0.500342
-0.51642 0.244851 -0.461087
0.316847 -0.448872 0.500998
0.280239 -0.510385 -0.540713
0.243819 0.538355 -0.429671
0.24953 -0.562123 -0.506712
0.49719 0.232545 -0.473162
0.279804 -0.46243 0.501773
0.279887 -0.477422 -0.475491
0.255261 0.514334 -0.481734
0.293332 -0.476341 -0.496153
0.510066 0.217092 -0.468293
-0.516549 0.286013 -0.470048
0.277833 -0.46415 0.470478
0.291633 -0.428734 -0.492277
0.223379 0.505709 -0.452277
0.260621 -0.502529 -0.424097
0.493797 0.319902 -0.491
-0.481053 0.257668 -0.473096
0.336636 -0.436341 0.460825
0.281174 -0.446911 -0.447739
0.334969 0.552051 -0.456526
0.27839 -0.495245 -0.467768
0.50169 0.249372 -0.456428
-0.436379 0.242723 -0.476888
0.301698 -0.463522 0.457257
0.273749 -0.460248 -0.452999
0.282193 0.475599 -0.374384
0.236326 -0.458139 -0.421411
0.526361 0.281085 -0.443713
-0.49675 0.312492 -0.41909
0.390528 -0.494665 -0.443418
-0.494228 0.330254 -0.450435
0.247204 -0.417086 0.509407
0.25466 -0.398282 -0.461005
0.278437 0.51517 -0.394359
0.282394 -0.51446 -0.437727
-0.517612 0.252473 -0.379306
0.280103 -0.396177 0.503203
0.275486 -0.505032 -0.456255
0.486062 0.3216 -0.350084
0.288188 -0.300271 0.505199
0.244036 -0.386592 -0.47281
0.284264 -0.531961 -0.374699
0.488694 0.274076 -0.338867
0.292745 -0.551048 -0.363844
0.494652 0.267325 -0.320157
-0.467122 0.293419 -0.355488
0.251259 0.473059 -0.387317
0.521459 0.205389 -0.381646
0.306382 -0.405617 0.488796
0.260522 0.546562 -0.38704
0.213446 -0.520101 -0.341119
-0.44761 0.273317 -0.402444
0.325752 -0.347733 -0.498463
0.525115 0.308875 0.334304
0.269766 0.303841 -0.512683
0.319372 0.365773 -0.519589
0.48522 0.295623 0.336723
-0.504339 0.331271 0.404848
0.283865 0.37814 0.470907
0.394173 0.521633 0.388693
0.259707 0.513522 0.37989
0.478475 0.271776 0.376337
-0.532002 0.223757 0.368051
0.322046 0.440254 0.516739
0.273346 -0.53716 0.41414
0.286944 0.406903 0.437736
0.298494 0.415773 -0.456416
0.269898 -0.514794 0.375742
0.459029 0.265121 0.419168
0.348031 0.39578 0.458899
0.283246 -0.47338 0.419594
0.461851 0.257227 0.445846
-0.520285 0.314955 0.474315
0.297166 0.515102 0.450415
0.23774 -0.489617 0.408532
0.521471 0.230675 0.410783
-0.482229 0.290374 0.459635
0.250967 0.455718 0.469926
0.28423 0.455906 -0.47468
0.317909 0.5358 0.488552
0.272331 -0.511314 0.429294
-0.541563 0.284193 0.413759
0.253674 0.421901 0.511989
0.350911 -0.470533 0.421464
0.542069 0.342868 0.426898
-0.496576 0.299623 0.466282
0.262407 0.472103 0.470342
0.279579 0.488832 -0.570693
0.259368 0.531286 0.470322
0.290652 -0.534697 0.469402
0.5325 0.249113 0.434462
-0.49837 0.261861 0.469751
0.346907 0.481794 0.506389
0.275375 0.4823 -0.468431
0.25513 0.546149 0.474053
0.44073 0.304236 0.502368
-0.530348 0.25333 0.483896
0.262995 0.476124 0.51183
0.250026 0.444171 -0.493201
0.303085 0.438642 0.543819
0.258861 -0.523344 0.485725
0.573033 0.31548 0.500275
0.240356 0.50641 0.535994
0.256091 0.45888 -0.555842
0.265666 0.474362 0.47181
0.252577 -0.529626 0.535625
0.516566 0.310371 0.51878
-0.486283 0.262275 0.493155
0.299069 -0.525884 0.514021
0.303696 -0.444716 -0.456977
0.305443 0.49481 -0.504243
0.248552 -0.467408 -0.494657
0.532052 0.286477 -0.488148
-0.465413 0.31515 -0.498185
0.328337 -0.481868 0.452557
0.312504 -0.471407 -0.483154
0.28613 0.513897 -0.460033
0.257857 -0.494755 -0.478392
0.501817 0.287379 -0.503184
-0.487338 0.292097 -0.485374
0.200714 -0.46769 0.508681
0.315802 -0.452708 -0.462021
0.278429 0.544265 -0.518621
0.300206 -0.516098 -0.482122
0.499212 0.313143 -0.418512
-0.544511 0.284712 -0.480892
0.282496 -0.483404 -0.501657
0.52686 0.307291 -0.482439
-0.521066 0.300965 -0.479895
0.274113 -0.443317 0.549237
0.235574 -0.496573 -0.505273
0.346026 0.535552 -0.423565
0.277238 -0.51059 -0.446161
0.507635 0.356815 -0.481451
-0.436306 0.297348 -0.443048
0.329896 -0.423862 0.557352
0.272539 -0.453165 -0.534063
0.302611 0.511418 -0.443179
0.270616 -0.505634 -0.409188
0.512325 0.298971 -0.383168
-0.447266 0.311587 -0.396078
0.301983 0.518521 -0.47892
0.349168 -0.529923 -0.413479
0.309975 -0.501758 0.511372
0.271693 -0.39646 -0.467848
0.302715 0.496375 -0.441924
0.295434 -0.411606 -0.492927
0.479983 0.30662 -0.395155
0.319435 -0.42867 -0.487221
0.290021 -0.454229 -0.429765
0.542156 0.333212 -0.448018
-0.525508 0.287241 -0.447048
0.264548 -0.399867 -0.498008
0.342891 -0.44042 -0.396386
-0.475743 0.294583 -0.371316
0.25351 -0.365467 -0.478506
0.335267 -0.468214 -0.395498
0.469383 0.250714 -0.483745
-0.562499 0.252095 -0.417059
0.3033 0.530114 -0.393834
0.302019 -0.509385 -0.35644
0.479461 0.286802 -0.354828
0.248169 -0.36082 -0.466371
0.306537 -0.481904 -0.390443
0.470438 0.292292 -0.329427
0.252916 0.449285 -0.374894
0.275882 -0.361197 0.531277
0.272754 0.527168 -0.384437
-0.479516 0.239684 -0.378527
0.262176 -0.36919 0.591594
0.34496 -0.484476 -0.347405
-0.486113 0.296353 0.335062
0.274951 -0.506811 0.311012
0.254823 -0.535497 0.312968
0.296122 0.363747 0.544195
0.290114 0.47443 0.389106
0.293621 0.395282 -0.511519
0.268335 -0.472027 0.39879
0.275456 0.386657 0.538261
0.297038 0.392812 -0.545327
0.335496 0.527466 0.423776
0.257709 -0.51963 0.375454
-0.521786 0.275423 0.38367
0.285587 0.423101 0.46732
0.323227 0.487548 0.444009
0.293078 -0.547855 0.380574
-0.495344 0.304753 0.381919
-0.474836 0.310004 0.394611
0.336048 0.514036 0.420305
0.290398 -0.448032 0.412905
0.465388 0.3042 0.385395
0.280145 0.390831 -0.51222
0.341042 -0.508585 0.412203
0.532216 0.265656 0.44702
-0.482343 0.27262 0.386984
0.258884 0.413551 -0.485448
0.508823 0.29073 0.42129
-0.533556 0.32213 0.460788
0.269143 0.474107 -0.553145
0.318662 0.505761 0.455239
0.277778 -0.483836 0.441638
0.518015 0.285932 0.434937
-0.529648 0.271728 0.433471
0.276137 0.529049 0.4283
0.289743 0.490217 -0.496112
0.301574 0.550161 0.483903
0.258471 -0.515016 0.396822
0.530521 0.287982 0.446784
-0.538472 0.240465 0.426605
0.340248 0.465211 0.492338
0.316992 -0.495071 0.413558
-0.519361 0.325933 0.440007
0.277624 0.491058 0.489049
0.324605 0.444816 -0.564445
0.265727 0.513483 0.472587
0.341374 -0.528499 0.376004
0.521795 0.302075 0.47467
-0.527384 0.271899 0.438835
0.249402 0.502424 0.534272
0.344598 0.468512 -0.532231
0.286621 0.459235 0.495046
0.327131 -0.539677 0.468712
0.529331 0.256154 0.495871
-0.453301 0.330369 0.507631
0.267522 0.509132 0.509497
0.275051 0.500168 -0.4577
0.31538 0.499896 0.518775
0.294843 -0.509939 0.467606
0.52582 0.290924 0.470132
-0.567405 0.315774 0.513588
0.293577 -0.466264 0.522689
0.266531 -0.543467 -0.509674
0.26217 0.482677 -0.506186
0.235252 -0.53335 -0.536466
0.524857 0.292125 -0.576478
-0.454298 0.290084 -0.538725
0.220096 -0.469432 0.487687
0.316092 -0.447498 -0.502059
0.296043 0.525875 -0.484115
0.276646 -0.558942 -0.513644
0.503347 0.247668 -0.482254
-0.454689 0.330235 -0.471868
0.300059 -0.45297 0.513025
0.24887 -0.442182 -0.531482
0.247555 0.489749 -0.505819
0.342364 -0.524253 -0.450175
0.525477 0.267925 -0.459535
-0.475031 0.342864 -0.50098
0.338515 -0.454853 0.45079
0.27631 -0.42735 -0.512336
0.263309 0.446018 -0.412609
0.331025 -0.545547 -0.428146
0.481689 0.327257 -0.467747
-0.475575 0.261692 -0.476671
0.289203 -0.435564 0.528069
0.2966 0.532215 -0.405783
0.23132 -0.498978 -0.439268
-0.462862 0.323324 -0.461974
0.240074 -0.513384 -0.494902
0.378368 0.516331 -0.444814
0.37001 -0.520592 -0.440469
0.471973 0.305163 -0.462366
0.351145 -0.433362 0.498444
0.297075 0.484362 -0.468615
0.302984 -0.515453 -0.456787
-0.479233 0.324994 -0.41298
0.322151 -0.43269 0.47926
0.305153 -0.519741 -0.367697
0.494633 0.313781 -0.369777
-0.584828 0.283709 -0.461624
0.297249 -0.472385 0.476252
0.345958 -0.438221 -0.528246
0.260863 0.563409 -0.450167
-0.461127 0.33522 -0.406243
0.299691 -0.415337 0.468567
0.322431 -0.417032 -0.486007
0.259493 0.534014 -0.406298
0.336393 -0.553606 -0.401968
0.262137 -0.378207 0.485513
0.252958 0.474327 -0.407806
0.534279 0.225788 -0.415568
0.347359 -0.401503 0.531605
0.29714 0.471499 -0.334308
0.487323 0.289893 -0.330687
-0.534984 0.289741 -0.414097
0.511127 0.308027 -0.346674
0.320511 -0.343525 0.519557
0.273955 -0.331457 0.436818
-0.533282 0.304196 -0.363589
-0.499044 0.329513 0.290868
0.296693 0.309713 0.5514
0.5242 0.262855 0.309997
0.275687 0.289613 -0.481141
0.461163 0.293535 0.34818
0.290927 0.316888 0.528152
0.288951 0.488158 0.350296
-0.518799 0.319403 0.326697
0.28369 -0.468211 0.355655
0.255758 0.359282 0.533774
0.299443 0.481975 0.352829
0.287102 -0.476398 0.430599
0.550039 0.313733 0.355111
0.314605 0.426871 0.47214
0.274889 0.575381 0.408819
0.480775 0.343121 0.420837
-0.484715 0.281022 0.385036
0.335898 0.35374 0.498134
0.265869 0.494241 0.414847
0.365503 -0.500573 0.392262
0.332353 0.436274 0.523337
0.303308 0.502264 0.396595
0.33525 -0.486989 0.352113
0.537581 0.257894 0.419131
0.29188 0.397765 0.468842
0.283457 0.468527 -0.489432
0.317229 0.482225 0.434851
0.31601 -0.545376 0.461733
0.500409 0.304585 0.437798
-0.543433 0.220233 0.431532
0.340659 0.467018 0.490835
0.300963 0.386692 -0.511685
0.282253 0.487503 0.475633
0.272572 -0.553439 0.381172
0.313941 0.376213 0.471447
0.347863 0.438928 -0.491256
0.28594 0.537883 0.513242
0.276202 -0.534169 0.407696
0.472124 0.327801 0.476217
-0.451837 0.332727 0.484331
0.272772 0.468204 0.518034
0.318065 0.481105 -0.463611
0.279023 0.521317 0.488861
0.324404 -0.511262 0.496496
0.498786 0.296966 0.505824
0.286682 0.533449 0.52653
0.297753 0.434571 -0.534475
0.302979 0.503386 0.473373
0.323368 -0.535793 0.484856
0.503012 0.278006 0.465782
-0.554461 0.34397 0.477847
0.249221 0.462246 0.522364
0.341849 0.512808 -0.4461
0.338144 -0.476847 0.510458
-0.546945 0.297073 0.457634
0.308856 0.493459 0.52278
0.323472 0.49435 -0.536321
0.239915 0.536706 0.458804
0.492445 0.268519 0.488342
-0.454142 0.276772 0.48335
0.303177 0.474108 0.47945
0.31284 0.5545 -0.468184
0.27734 0.576985 0.48341
0.270855 -0.478799 0.440215
0.505208 0.276692 0.479073
-0.49623 0.277131 0.492186
0.288458 -0.503759 0.496842
0.297096 -0.447284 -0.531739
0.329176 0.521947 -0.508313
0.362185 -0.46812 -0.552742
0.5131 0.282204 -0.532751
-0.4278 0.259601 -0.505848
0.335687 -0.477467 0.486446
0.322435 0.520843 -0.520708
0.265209 -0.544827 -0.494189
0.463891 0.300136 -0.509509
-0.531388 0.393792 -0.463182
0.294136 -0.491358 0.483479
0.329855 -0.479975 -0.424102
0.247752 0.535651 -0.433951
0.275194 -0.499331 -0.439872
0.520822 0.342824 -0.468573
-0.475152 0.344837 -0.447468
0.273726 -0.500146 0.464744
0.32266 -0.450871 -0.494671
0.297387 -0.519445 -0.563338
0.512575 0.284343 -0.455973
-0.475963 0.325008 -0.433145
0.312561 -0.450965 0.600021
0.310999 -0.430616 -0.542733
0.334058 0.439377 -0.467604
0.272838 -0.450129 -0.456672
0.516305 0.261106 -0.494839
-0.470385 0.366918 -0.470213
0.274252 -0.447804 -0.481918
0.308004 0.465323 -0.431826
0.497413 0.240717 -0.456478
-0.504674 0.322705 -0.396228
0.348052 -0.446612 -0.50182
0.320884 0.450922 -0.456006
0.520069 0.283606 -0.455406
-0.481952 0.328593 -0.462125
0.23288 -0.458775 -0.519118
0.328656 0.469392 -0.386132
0.353181 -0.494386 -0.461447
0.49298 0.322836 -0.451936
0.323657 -0.396462 0.533952
0.259416 -0.38652 -0.472349
0.296231 0.53074 -0.435059
0.347943 -0.486714 -0.401427
0.51238 0.251628 -0.442603
-0.490193 0.347677 -0.403919
0.307088 -0.394093 0.487264
0.276995 -0.440623 -0.430875
0.345786 0.514493 -0.3602
0.301852 -0.361852 0.482966
0.351996 -0.393575 -0.450782
0.320354 0.545672 -0.398509
0.3151 -0.37488 -0.509593
-0.47956 0.294206 -0.395349
0.346908 -0.462683 -0.374837
-0.513215 0.379617 -0.360608
0.26475 -0.410468 0.548623
0.288444 0.450525 -0.329861
0.521032 0.347957 -0.331875
0.353609 -0.520759 -0.355981
0.383952 -0.346945 -0.434008
0.30301 0.484301 -0.383106
0.222757 0.464301 0.341835
0.349251 0.384912 -0.552003
0.272338 0.307112 0.511181
0.298035 0.46749 0.373245
0.346607 0.316834 0.490916
0.312926 0.529585 0.3776
0.293662 -0.483111 0.37566
0.316111 0.366838 -0.513096
0.494416 0.310916 0.280908
-0.516647 0.290492 0.351775
0.284219 0.517383 0.40076
0.271492 -0.585762 0.394773
0.367642 0.352621 0.530154
0.324983 0.516205 0.383381
0.329024 0.545099 0.411119
-0.439633 0.278956 0.422378
0.298394 0.437246 0.486165
0.288496 0.426507 -0.54585
0.320853 0.48502 0.406969
0.292253 -0.473934 0.393695
0.474889 0.291178 0.438124
0.300025 0.400369 0.486978
0.347499 0.545515 0.396919
0.326363 -0.437092 0.405303
0.282757 0.423748 0.532934
0.296236 0.376258 -0.537767
0.480317 0.327381 0.422216
-0.506592 0.300499 0.413244
0.333408 0.450311 0.518849
-0.504138 0.213894 0.436165
0.391152 0.430358 0.430813
0.318276 0.396147 -0.535671
0.36434 0.559474 0.395311
0.521026 0.30286 0.369467
-0.51298 0.311992 0.444846
0.32359 0.474965 -0.566636
0.283454 0.478159 0.441972
0.370413 -0.521732 0.430266
0.511442 0.353741 0.490323
0.261164 0.455235 0.477454
0.329539 0.485577 0.432996
0.287335 -0.49795 0.45692
-0.561283 0.331717 0.483164
0.26022 0.444927 0.485194
0.326297 0.481441 -0.496509
0.335549 0.584993 0.503485
0.293231 -0.544591 0.389366
0.484647 0.341993 0.498355
-0.479379 0.324676 0.494663
0.295204 0.484853 0.504299
0.280496 0.447746 -0.484409
0.253821 0.53565 0.540377
0.330533 -0.512302 0.410175
0.475204 0.28779 0.398292
-0.542251 0.321237 0.458519
0.326741 0.45032 0.506537
0.296314 0.512102 -0.486664
0.313272 0.525413 0.519562
0.332767 -0.500688 0.507231
0.516048 0.266624 0.503922
-0.467657 0.350785 0.552734
0.274196 0.50124 0.51014
0.325213 0.467778 -0.512684
0.276195 0.511195 0.459252
0.309022 -0.480944 0.471302
0.509599 0.33613 0.477688
-0.509257 0.298998 0.550267
0.343241 -0.518066 0.516943
0.314051 -0.478972 -0.537942
0.290009 0.510057 -0.511317
0.355819 -0.523332 -0.51579
0.477105 0.35236 -0.476014
-0.513037 0.317804 -0.522177
0.253561 -0.48426 0.453886
0.361108 -0.51748 -0.541717
0.324646 0.601173 -0.490183
0.347038 -0.529232 -0.489975
0.513458 0.385635 -0.477136
-0.542727 0.328991 -0.48455
0.310315 -0.440402 0.511137
