ply
format ascii 1.0
comment sampling resolution: 0.01
comment noise level: 0.02
comment Created by Open3D
element vertex 1726
property double x
property double y
property double z
end_header
0.263101 -0.472649 0.518454
0.316835 -0.475012 -0.469594
-0.484943 0.268058 -0.437393
0.286489 0.522936 -0.449219
0.477995 0.274915 -0.455496
0.481447 0.267837 -0.429172
-0.529003 0.294092 -0.438614
0.301178 -0.434379 -0.520095
0.269953 -0.488069 -0.423658
0.300214 0.437724 -0.507642
0.28284 0.508616 0.433894
-0.516411 0.303206 0.453244
0.267398 0.473111 0.456231
0.272993 0.485071 -0.502494
0.277612 0.538745 0.450632
0.282002 -0.509034 0.441706
0.28006 0.530935 0.436879
0.295551 -0.492137 0.480195
0.278137 0.464037 0.516324
0.266825 0.438736 -0.504374
0.250561 -0.472725 0.490641
-0.483806 0.263996 0.453761
0.259448 0.48977 0.504299
0.292923 0.509865 0.440548
0.244364 -0.521222 0.465769
0.506536 0.282774 0.455291
0.252334 0.474985 0.51441
0.266596 0.489655 -0.502132
0.274502 0.465524 0.500839
0.521737 0.238909 0.473768
-0.495187 0.283417 0.476055
0.266921 0.503957 0.533502
0.294118 0.500823 -0.544803
0.273616 0.470301 0.484063
0.288395 -0.470941 0.473739
0.480285 0.255569 0.478846
-0.489501 0.312972 0.459459
0.304982 -0.51435 0.531598
0.264878 -0.49505 -0.504372
0.276512 0.516064 -0.491655
0.27825 -0.511912 -0.513981
0.500975 0.264247 -0.521124
-0.508872 0.310026 -0.502456
0.257667 -0.452865 0.507544
0.296205 -0.4717 -0.50489
0.330142 0.479223 -0.50125
0.285866 -0.500889 -0.511648
0.555128 0.291271 -0.466367
-0.529623 0.2645 -0.50233
0.288469 -0.467253 0.519342
0.318854 -0.4986 -0.469014
0.300455 0.529221 -0.481166
0.3169 -0.503861 -0.475423
0.245249 -0.486071 0.497107
0.30983 0.50004 -0.496694
0.290314 -0.499226 -0.476544
0.299328 0.521376 -0.468264
-0.513216 0.232968 -0.459501
0.297985 -0.442652 0.489367
0.269415 -0.465155 -0.489646
0.297666 -0.526151 -0.447889
0.495503 0.302617 -0.417014
-0.502684 0.287869 -0.421499
0.313942 0.496571 -0.418602
0.275748 -0.497244 -0.405292
-0.523892 0.271616 -0.428332
0.296874 0.459034 0.420211
0.284042 0.492213 0.384776
0.284217 0.438551 0.511472
0.281798 -0.471202 0.400555
0.500324 0.292329 0.404168
-0.503653 0.272949 0.412927
0.309913 0.419299 0.496569
0.237921 0.450479 -0.494101
0.26628 0.538421 0.454306
0.267735 -0.48649 0.436751
0.319857 0.480197 0.491866
0.295531 0.456646 -0.512173
-0.504466 0.29956 0.476529
0.290195 0.447034 0.463987
0.290912 0.478999 -0.482013
0.265539 -0.516781 0.473317
-0.488631 0.295541 0.499817
0.279515 0.465826 0.504234
0.274234 0.459163 -0.489867
0.286033 -0.485441 0.466061
-0.515806 0.314555 0.46775
0.280304 0.442488 0.458016
0.29499 0.4849 -0.497479
0.285954 0.505951 0.452564
0.286792 -0.421655 0.487315
0.330242 0.485499 0.473311
0.267978 0.489392 -0.520401
0.325427 0.527066 0.455805
0.322255 -0.515464 0.513899
0.503563 0.299109 0.522326
-0.493566 0.258884 0.493089
0.293071 0.51453 0.489145
0.267159 0.493662 -0.496984
0.312418 0.476246 0.466342
0.256745 -0.503372 0.478909
0.487373 0.300447 0.509847
-0.51135 0.292121 0.501207
0.274805 -0.501857 0.48138
0.269583 -0.542772 -0.495574
0.277268 0.545461 -0.512465
0.302075 -0.474756 -0.464935
0.527038 0.268118 -0.518379
-0.486931 0.285002 -0.487967
0.293565 -0.468675 0.503303
0.279469 -0.499606 -0.522988
0.265716 0.516323 -0.459577
0.270507 -0.511749 -0.485976
0.49604 0.281517 -0.459575
-0.474613 0.301879 -0.507997
0.278436 -0.521509 0.492793
0.323057 0.456911 -0.483993
0.492049 0.284037 -0.46044
-0.494588 0.250863 -0.472418
0.328501 -0.47324 0.458247
0.314741 -0.442128 -0.520007
0.303376 0.469887 -0.473377
0.299971 -0.483937 -0.468581
0.506896 0.301748 -0.439815
-0.502427 0.296443 -0.455082
0.325125 -0.471408 0.497071
0.285434 -0.487833 -0.463302
0.495511 0.314624 -0.436475
-0.486725 0.303391 -0.448091
0.284777 -0.459971 -0.474228
0.272132 0.517817 -0.45648
0.29924 -0.521602 -0.433799
0.488265 0.318043 -0.449926
-0.494157 0.269364 -0.472249
0.295549 -0.440465 -0.493113
0.509542 0.284179 -0.442745
0.284953 -0.451537 -0.510262
0.285199 -0.359817 0.4656
0.305088 0.511612 -0.427493
0.294035 -0.49294 -0.417092
0.502747 0.259406 0.407559
0.307554 0.436848 -0.481147
0.516367 0.283725 0.436145
0.313908 0.485421 -0.53394
0.282924 -0.507701 0.424739
0.533822 0.309723 0.419456
-0.487594 0.310664 0.429437
0.305141 0.456368 0.498192
0.299872 -0.551337 0.452062
0.486584 0.303088 0.404017
0.30056 0.455367 0.512855
0.296877 0.460019 -0.530699
0.276118 0.477307 0.454441
0.501379 0.293555 0.417453
-0.49218 0.279717 0.444042
0.312591 0.442274 0.491093
0.287075 0.475742 -0.500889
0.240944 0.521018 0.453152
0.323441 -0.523253 0.476869
0.497047 0.276601 0.501087
-0.52768 0.328277 0.451475
0.306012 0.503163 -0.464007
0.297352 0.518942 0.464795
0.306582 -0.538017 0.496615
0.521265 0.310044 0.505075
-0.487844 0.313114 0.481689
0.29789 0.535347 0.51442
0.278484 0.499925 0.50135
0.33519 -0.526574 0.53056
0.4714 0.343175 0.509044
-0.507499 0.291346 0.506969
0.328556 0.483485 0.515229
0.312337 0.50224 -0.507011
0.306712 0.477623 0.482051
0.28192 -0.48404 0.490153
0.523377 0.322491 0.509623
-0.483932 0.294517 0.494629
0.335743 -0.508653 0.46368
0.321689 -0.480109 -0.509312
0.304409 0.499913 -0.488152
0.346193 -0.47688 -0.473758
0.494321 0.323521 -0.468146
-0.513337 0.313703 -0.501683
0.2849 -0.480067 0.514749
0.315263 -0.528741 -0.530871
0.314476 0.502403 -0.499825
0.490774 0.292763 -0.47829
0.309309 -0.481134 0.538189
0.292065 -0.459802 -0.529413
0.266564 -0.490898 -0.493062
-0.503669 0.306206 -0.417196
0.339083 -0.463679 0.506776
0.282534 -0.449071 -0.508157
0.285629 0.493332 -0.460365
0.316932 -0.448294 0.512368
0.324608 -0.476851 -0.517691
0.321789 0.527124 -0.462806
0.502915 0.31044 -0.426441
-0.456947 0.330675 -0.487386
0.314013 -0.47223 0.514794
0.303137 0.471985 -0.430681
0.481957 0.312677 -0.46384
-0.508592 0.317514 -0.454311
0.28539 -0.410861 -0.444769
-0.49167 0.318783 -0.401644
0.274575 -0.439618 0.506731
0.336608 -0.422758 -0.479642
0.296034 0.447989 -0.433371
0.273082 -0.522977 -0.430247
-0.50955 0.270282 -0.416571
-0.501149 0.315879 -0.395485
0.290352 0.510512 0.430372
-0.495307 0.283025 0.411436
0.333524 0.476879 0.436478
0.325791 -0.534256 0.444625
0.539472 0.303872 0.419092
0.293668 0.445097 0.495015
0.331455 0.448222 -0.519071
0.304107 0.446593 -0.515498
0.314631 0.480306 0.472939
0.480654 0.27129 0.440949
0.311213 0.49101 0.498412
0.318618 0.490557 0.464179
-0.487704 0.298399 0.442555
0.284969 0.447978 -0.510623
0.304067 0.471509 0.441853
-0.496488 0.29396 0.469431
0.49451 0.327093 0.472904
-0.480854 0.305229 0.487634
0.304038 0.453688 0.468414
0.351604 0.479777 -0.490492
0.321649 0.493894 0.447033
0.309874 -0.521023 0.515211
0.479373 0.291689 0.472857
-0.502691 0.307038 0.483885
0.324549 0.47197 0.485649
0.343214 0.478654 -0.497559
0.297594 0.508433 0.47062
0.335228 -0.499393 0.51515
0.482834 0.272511 0.497175
0.309763 0.524825 0.546059
0.297854 0.550075 -0.505138
0.31609 0.489114 0.452306
0.293223 -0.517456 0.480627
0.493671 0.2725 0.481047
-0.511799 0.316733 0.481584
0.316467 -0.462029 0.498756
0.288284 -0.538161 -0.499069
0.316071 0.505245 -0.508476
0.338361 -0.491885 -0.50309
0.497839 0.315639 -0.473908
-0.543837 0.313838 -0.502613
0.325079 -0.501271 0.476257
0.320184 -0.475186 -0.503109
0.27959 0.498305 -0.4826
0.342313 -0.498724 -0.474701
0.49192 0.315914 -0.485223
-0.525047 0.305289 -0.487143
0.294489 -0.531457 -0.472736
0.483919 0.335797 -0.45203
-0.49832 0.279714 -0.478962
0.357313 -0.489713 0.514035
0.318227 -0.485108 -0.46451
0.489445 0.330165 -0.44734
-0.489431 0.294799 -0.50472
0.299359 -0.417809 -0.484088
0.342473 0.489141 -0.49765
0.32667 -0.483913 -0.458555
0.524138 0.312549 -0.458402
-0.551214 0.303451 -0.432822
0.292423 -0.440968 0.468964
0.301577 -0.492971 -0.491445
0.291565 -0.481674 -0.449533
0.519577 0.313618 -0.443056
0.342211 -0.445611 0.523497
-0.483366 0.309903 -0.425925
0.299183 -0.416541 0.506567
0.514191 0.290196 -0.42814
-0.480568 0.309956 -0.446173
0.500599 0.359249 -0.386351
0.316282 -0.406108 0.505259
-0.476335 0.323868 -0.397839
0.346486 0.387025 0.508061
0.327966 0.531818 0.445478
0.326131 -0.520948 0.442577
0.336484 0.411304 0.465722
0.285083 0.452855 -0.497379
0.299206 0.504206 0.389435
-0.492784 0.306305 0.435501
0.335082 0.460209 0.471524
-0.522336 0.326443 0.431572
0.324842 0.496952 0.516996
0.330505 0.48953 0.45436
0.446565 0.315674 0.430837
0.350336 0.469435 0.51728
0.319474 0.426138 -0.524542
0.32318 0.501298 0.444217
0.47803 0.324911 0.445372
-0.517272 0.301086 0.443502
0.285363 0.472209 -0.503341
0.317989 0.497847 0.482679
0.341991 -0.495317 0.479599
-0.482674 0.352324 0.469696
0.309929 0.496821 0.459863
0.506345 0.343447 0.485997
-0.497365 0.334012 0.509737
0.27997 0.493951 0.497099
0.313525 0.478683 -0.499861
0.325801 -0.512825 0.489614
0.481997 0.311974 0.476197
-0.480024 0.345178 0.503667
0.265784 0.514153 0.493222
0.305035 0.473426 -0.499273
0.305131 0.463593 0.51924
0.333095 -0.483051 0.461143
0.512994 0.320999 0.510953
-0.498297 0.316298 0.51768
0.33868 -0.487775 0.478171
0.295513 -0.478055 -0.513144
0.319853 0.491089 -0.467945
0.352088 -0.502308 -0.478897
0.528175 0.327299 -0.527523
-0.526386 0.330153 -0.513919
0.319203 -0.475543 0.501182
0.334307 0.518241 -0.480057
0.481267 0.331092 -0.470893
-0.478738 0.317476 -0.52441
0.30771 -0.508757 -0.493479
0.306469 0.50429 -0.44855
0.312207 -0.49707 -0.457442
-0.494179 0.343825 -0.527532
0.339422 -0.507105 0.500729
0.330073 -0.53487 -0.502127
0.332051 0.491892 -0.487463
0.32527 -0.509607 -0.44591
0.473827 0.342281 -0.439786
0.351092 0.466494 -0.458328
0.313451 -0.459583 -0.452556
-0.464457 0.328524 -0.440406
0.319558 0.482376 -0.495883
0.329263 -0.515765 -0.46252
-0.477858 0.317787 -0.477825
0.357345 -0.505742 -0.451445
0.465379 0.301174 -0.461024
0.352568 -0.435294 0.50574
0.337641 -0.445645 -0.531884
0.506787 0.322321 -0.385637
0.372487 -0.422604 0.521899
0.336227 -0.417715 -0.482707
0.343392 0.486325 -0.480068
0.486763 0.346667 -0.465279
-0.507464 0.313244 -0.409258
0.373458 -0.419281 0.517628
0.325331 -0.423626 -0.498191
0.303571 -0.472155 0.390177
0.325293 -0.520234 0.424563
-0.500076 0.339236 0.391338
0.303794 0.49631 0.398621
0.319592 -0.483983 0.461955
0.335388 -0.490821 0.416702
0.509295 0.341618 0.437905
0.282996 0.439053 0.524467
0.315287 0.45787 -0.534454
0.329137 0.505012 0.43144
0.504066 0.370112 0.45074
0.328263 0.455334 0.516432
0.311198 0.427269 -0.521997
0.32013 0.46795 0.480711
0.314862 -0.544541 0.452208
-0.489779 0.320882 0.457964
0.33731 0.482951 -0.515257
0.329568 -0.521574 0.477368
0.501388 0.326045 0.449149
0.323605 0.477194 -0.518831
0.310822 0.466904 0.490789
0.287298 -0.516164 0.470876
0.535983 0.301891 0.4909
-0.494055 0.335923 0.4415
0.329826 0.45589 0.499455
0.316692 0.493139 -0.482185
0.321853 0.499935 0.470981
0.324113 -0.532871 0.484501
0.491609 0.353314 0.488159
-0.466312 0.325237 0.470013
0.312677 0.512937 0.469799
0.365578 0.493046 -0.481756
0.377935 0.489116 0.514015
0.516183 0.321665 0.509468
-0.473429 0.344701 0.504173
0.307792 0.485557 0.521931
0.29643 0.512824 -0.496199
0.313228 0.443862 0.495857
0.341496 -0.489518 0.520392
0.524168 0.298458 0.508726
-0.470203 0.323981 0.536296
0.334665 -0.498409 0.515709
0.357932 -0.499581 -0.5345
0.337725 0.497425 -0.494016
0.336576 -0.494271 -0.484949
0.481237 0.34834 -0.510928
-0.492854 0.356124 -0.528851
0.341555 -0.465904 0.479113
0.332903 -0.47222 -0.51919
0.360011 0.509606 -0.510161
0.333173 -0.466997 -0.490453
0.499754 0.277026 -0.500365
0.326125 -0.477212 0.521411
0.385482 -0.465161 -0.514967
0.323193 0.506268 -0.455933
0.356899 -0.479739 -0.479737
0.506197 0.320827 -0.459318
-0.497007 0.335621 -0.468245
0.326721 -0.461068 0.497386
0.328161 0.49419 -0.490297
0.300346 -0.519188 -0.484358
0.513731 0.381541 -0.476726
-0.485566 0.318511 -0.466627
0.332689 -0.457314 0.488429
0.324064 -0.471451 -0.489358
0.311186 0.504516 -0.484648
0.357688 -0.486701 -0.453047
0.532226 0.320309 -0.448737
0.341474 -0.477763 0.446234
0.299485 -0.425212 -0.50129
0.374821 0.463704 -0.446674
-0.515798 0.343201 -0.45158
0.335282 0.505141 -0.414109
-0.527805 0.314367 -0.434234
0.287799 -0.463818 -0.507715
0.337761 -0.492008 -0.40875
-0.498489 0.387587 -0.412512
0.292533 0.509146 -0.437642
0.31206 -0.402992 0.475821
0.327559 0.500156 -0.39842
0.347625 -0.447711 -0.435659
0.502835 0.346786 -0.390915
0.31541 -0.383034 0.49555
0.502525 0.31719 -0.405277
0.357786 0.507478 -0.372407
0.366959 -0.493852 0.366537
0.373779 0.390645 -0.547822
-0.496296 0.34082 0.407387
0.311457 0.417637 0.451097
0.495776 0.349107 0.44518
-0.503623 0.342161 0.392537
0.518292 0.324018 0.434419
0.335362 0.45595 0.476722
0.329926 0.532589 0.405805
0.355907 -0.478776 0.459429
0.346804 0.422375 0.505006
0.363568 0.485292 0.43849
0.332685 -0.514587 0.474973
0.465362 0.373268 0.454714
0.374161 0.441686 0.516765
0.302956 0.473795 -0.528
0.319635 -0.510624 0.439375
0.497973 0.336938 0.445271
0.356262 0.49162 0.488182
0.336556 0.478076 -0.487319
0.342768 0.49161 0.50092
0.358479 -0.511386 0.417607
0.501553 0.361866 0.480754
-0.509192 0.359366 0.474558
0.331945 0.504157 0.491545
0.318831 -0.51545 0.496227
0.506358 0.353491 0.448172
-0.493658 0.346647 0.49701
0.315073 0.446663 0.508098
0.362692 0.502015 -0.490024
0.332937 0.472814 0.467383
0.320643 -0.49741 0.46779
0.511248 0.358159 0.502027
0.363938 0.489523 0.542797
0.337378 0.505697 -0.502275
0.299013 0.454542 0.47803
0.328998 -0.527942 0.464774
0.505924 0.311116 0.489502
-0.484793 0.35969 0.504871
0.334256 -0.50412 0.460003
0.353707 -0.511075 -0.456702
0.324828 0.516089 -0.470135
0.340799 -0.527194 -0.512284
0.522716 0.382341 -0.521137
-0.514055 0.338943 -0.506286
0.342905 -0.51272 0.495315
0.358803 -0.490583 -0.501354
0.378267 0.514784 -0.512042
0.354003 -0.503669 -0.467198
0.485434 0.360409 -0.47792
-0.498804 0.318899 -0.447953
0.347635 -0.48215 0.514317
0.320343 -0.522956 -0.464611
0.338861 0.512703 -0.50861
0.394332 -0.483044 -0.496811
0.492354 0.338066 -0.472995
-0.546778 0.331008 -0.513151
0.319357 -0.456952 0.52391
0.384414 -0.477507 -0.471503
0.366849 0.511301 -0.449319
0.327104 -0.489048 -0.467299
0.51211 0.391809 -0.464325
0.361145 -0.441466 0.508724
0.350677 -0.445067 -0.503669
0.354473 0.485708 -0.451903
0.34671 -0.461916 -0.464485
0.520102 0.359427 -0.478508
0.330911 -0.448823 -0.52535
0.372405 0.503966 -0.432165
0.510813 0.417283 -0.467001
-0.516371 0.345799 -0.438603
0.33946 -0.398913 -0.518534
0.310746 0.502576 -0.401589
0.352364 -0.496876 -0.43399
0.36754 -0.411211 0.484236
0.37321 -0.461327 -0.527349
0.340014 0.503651 -0.415996
-0.459399 0.341576 -0.424934
0.314693 -0.409952 0.525974
0.328593 0.518465 -0.415083
0.321092 -0.510996 -0.388755
-0.493721 0.355717 -0.392086
0.38787 -0.400733 -0.483746
0.355147 0.540098 -0.405222
0.347536 -0.490355 -0.389564
0.32458 0.497907 -0.400927
0.471267 0.342416 0.426959
0.322445 0.371829 -0.482442
0.514274 0.340917 0.37092
-0.502648 0.339998 0.410532
0.330147 0.369613 -0.523253
0.363127 -0.465404 0.402105
0.46974 0.322811 0.390902
0.331338 0.455804 0.513595
0.311478 0.430209 -0.511699
0.327898 0.492992 0.437103
0.335164 -0.46969 0.407559
-0.522384 0.36279 0.438089
0.336032 -0.472582 0.43327
0.504199 0.345004 0.434577
-0.489618 0.339552 0.431482
0.326162 0.417959 0.479182
-0.47766 0.366519 0.408229
0.329735 0.432215 0.477963
0.347109 0.394023 -0.504629
0.366498 0.524128 0.481317
-0.48624 0.33412 0.394081
0.365711 0.464285 0.480465
0.363751 0.487016 0.454016
0.369972 -0.518148 0.45053
0.508492 0.349207 0.433401
-0.519819 0.335 0.449803
0.296129 0.474078 0.520207
0.335193 0.470198 -0.508325
0.361201 0.526247 0.463808
0.488491 0.308536 0.487453
-0.491993 0.357823 0.477908
0.327473 0.440524 0.502639
0.309922 0.472756 -0.510334
0.352189 0.469252 0.463829
0.374236 -0.482245 0.420992
-0.484383 0.34987 0.456401
0.378981 0.495466 0.520323
0.364469 0.490975 -0.509728
0.335603 0.471654 0.490119
0.3333 -0.526352 0.485258
-0.502747 0.342742 0.499278
0.337624 0.491171 0.493221
0.373596 0.503982 -0.514688
0.348517 -0.451188 0.45795
0.508516 0.349924 0.469561
-0.489842 0.348312 0.515773
0.363759 0.485069 0.508685
0.32862 0.521189 -0.532519
0.341541 0.495558 0.503559
0.343247 -0.485497 0.489573
0.494922 0.344227 0.536702
-0.510909 0.363753 0.465993
0.329505 -0.521682 0.522488
0.352569 -0.485518 -0.487084
0.368242 0.529199 -0.478607
0.361309 -0.488669 -0.533287
0.497305 0.387876 -0.479192
-0.495436 0.355522 -0.488788
0.358837 -0.487551 0.519655
0.386532 -0.513112 -0.495976
0.323563 0.512305 -0.502939
0.375027 -0.499963 -0.454255
0.490202 0.329771 -0.480525
-0.512963 0.371664 -0.483695
0.355856 -0.527027 0.494656
0.34123 -0.47836 -0.495848
0.351057 0.49852 -0.483265
0.362651 -0.519243 -0.466074
-0.490507 0.31147 -0.502393
0.367821 -0.468698 0.521294
0.370729 -0.456926 -0.468314
0.378847 0.47349 -0.483431
0.347019 -0.489031 -0.4424
0.488766 0.348134 -0.473873
-0.48868 0.33332 -0.455315
0.351156 -0.512828 0.524739
0.351619 -0.453497 -0.4769
0.347868 0.482172 -0.46597
-0.503402 0.342889 -0.492975
0.349515 -0.491858 0.522129
0.333713 -0.436387 -0.505135
0.35397 -0.498631 -0.420906
0.489138 0.391399 -0.454451
-0.507524 0.368819 -0.453982
0.381883 -0.464415 0.477639
0.363738 -0.521565 -0.446051
0.485579 0.353048 -0.432827
0.35266 -0.427457 -0.48599
0.366588 0.514746 -0.415334
0.329208 -0.482219 -0.430708
0.511087 0.352008 -0.425141
0.332305 -0.418227 -0.52651
0.524764 0.356784 -0.437898
0.33938 -0.412369 0.511115
0.317117 0.496695 -0.375369
0.413509 -0.524571 -0.411526
0.344408 -0.518989 -0.430925
0.373371 -0.357939 0.483582
0.372843 -0.418011 -0.510833
0.37553 0.489792 -0.357341
-0.503971 0.366266 -0.381971
0.485057 0.345463 -0.373543
0.353973 0.387204 0.531609
0.335448 0.381909 0.507037
0.338014 0.367285 -0.498595
0.474901 0.370794 0.401631
0.364823 -0.527104 0.404727
0.320419 0.415849 0.52935
0.494148 0.349672 0.416995
-0.504298 0.368835 0.422419
0.355623 0.397037 -0.490671
0.492391 0.333521 0.411982
0.338294 -0.507376 0.442313
-0.502273 0.340512 0.440686
0.466924 0.34206 0.430798
-0.503675 0.357753 0.442173
0.378952 0.483926 0.497779
0.341184 -0.538749 0.425471
-0.505622 0.377814 0.450597
0.323157 0.442034 0.517409
0.325292 0.483722 0.440221
0.489599 0.370821 0.428657
-0.51885 0.362281 0.456509
0.349151 0.474905 0.494419
0.393105 0.513505 0.454089
0.470041 0.324549 0.470063
0.342565 0.462373 0.520429
0.377242 0.495519 -0.494889
0.347543 -0.52251 0.467525
0.510193 0.333673 0.458924
-0.518594 0.350237 0.462185
0.382968 0.490038 0.526879
0.383825 0.474252 -0.470921
0.353418 0.51892 0.489777
0.353089 -0.501108 0.487001
0.508435 0.340715 0.516311
-0.474092 0.378026 0.521549
0.408017 0.473062 0.483735
0.318274 0.462138 -0.523182
0.346317 0.494401 0.525249
0.369481 -0.526345 0.490321
0.509216 0.343656 0.505802
-0.482914 0.330962 0.485129
0.342288 -0.516466 0.488538
0.354876 -0.513972 -0.488215
0.333682 0.560969 -0.496945
0.381963 -0.497056 -0.504114
0.510895 0.359241 -0.49934
-0.461223 0.388842 -0.493208
0.366544 -0.481876 0.493049
0.352839 -0.504747 -0.524429
0.335888 0.501125 -0.506828
0.353475 -0.470268 -0.479455
0.523448 0.379639 -0.492916
-0.489672 0.355505 -0.502716
0.389468 -0.470435 0.485069
0.379346 -0.503602 -0.517341
0.378538 0.476504 -0.42816
0.377046 -0.508011 -0.497597
0.498618 0.396769 -0.509168
-0.481282 0.363401 -0.503384
0.368047 -0.438607 0.482835
0.361232 0.49443 -0.453376
0.391163 -0.511516 -0.463568
0.502567 0.349513 -0.481445
-0.516736 0.392848 -0.474179
0.332691 -0.459255 0.507752
0.418039 -0.451925 -0.524259
0.383689 0.465702 -0.448628
-0.494709 0.40918 -0.466448
0.351617 -0.445475 0.51823
0.349937 0.52161 -0.458506
0.385669 -0.519669 -0.442957
0.472753 0.333927 -0.453492
-0.510935 0.346378 -0.449708
0.375916 -0.463396 -0.539406
0.391961 0.508948 -0.41693
0.351127 -0.516244 -0.428472
-0.503727 0.391141 -0.439244
0.351338 -0.480655 -0.410944
0.358583 -0.438049 0.483723
0.385265 0.498578 -0.460655
-0.516187 0.364033 -0.432825
0.357984 -0.498259 -0.431061
-0.503022 0.356068 -0.404731
0.340213 -0.443911 0.514074
0.37695 0.499636 -0.391548
0.376671 -0.508557 -0.406903
0.374122 -0.411335 0.49194
0.372577 0.494634 -0.349556
0.370084 -0.514103 -0.387054
0.527207 0.379554 -0.369243
-0.490411 0.358029 -0.406329
0.512968 0.371916 -0.373365
0.345133 0.507683 -0.371399
0.344297 -0.517315 0.386633
-0.486875 0.333867 0.384426
-0.468448 0.332814 0.411552
0.367876 0.420173 -0.545877
0.332505 0.501125 0.420484
0.347535 -0.490933 0.377343
0.370019 -0.462038 0.433788
0.390219 0.457776 -0.509052
0.511604 0.356612 0.415905
0.379203 0.450847 0.501131
0.396802 0.483464 0.450178
0.373474 -0.540612 0.438466
0.442325 0.382684 0.432774
-0.509603 0.385373 0.446685
0.345676 0.451036 0.4989
0.391775 0.427703 -0.503537
0.382042 0.521244 0.454539
0.417245 -0.513635 0.451268
0.520137 0.349316 0.473443
-0.504704 0.378061 0.45979
0.367145 0.470218 0.491239
0.355568 0.442297 -0.477071
0.374143 0.488102 0.419049
0.369988 -0.479373 0.460115
0.524096 0.376147 0.467303
-0.483919 0.374853 0.498642
0.371338 0.445359 0.514449
0.371062 0.499134 -0.524307
0.34468 0.50436 0.464416
0.3934 -0.490175 0.481725
0.46845 0.359384 0.461967
-0.54206 0.370597 0.481762
0.362793 0.496953 0.478973
0.379606 0.452152 -0.522808
0.363448 0.515917 0.48593
0.390161 -0.50012 0.49979
0.502298 0.372749 0.476087
-0.492958 0.383851 0.499727
0.342818 0.511826 0.497374
0.384632 0.481268 -0.528103
0.382309 0.539957 0.522147
0.384289 -0.497898 0.508065
0.518171 0.382687 0.492279
-0.469597 0.395358 0.522401
0.36353 -0.511532 0.474955
0.37884 -0.523857 -0.500289
0.345424 0.504183 -0.524899
0.386902 -0.482211 -0.476237
0.481971 0.404814 -0.481056
-0.511207 0.38248 -0.501832
0.381169 -0.524291 0.503674
0.33924 -0.465168 -0.514475
0.386647 0.488683 -0.484073
0.370998 -0.508772 -0.468749
0.525792 0.384147 -0.510446
-0.513739 0.385669 -0.513788
0.361073 -0.51022 0.5311
0.408646 -0.510214 -0.489519
0.349441 0.491701 -0.478476
0.374255 -0.500844 -0.485002
0.541709 0.331717 -0.490917
-0.532091 0.360338 -0.470454
0.353688 -0.487165 0.535377
0.344227 -0.470834 -0.515226
0.36415 -0.468338 -0.455754
0.504685 0.358823 -0.465166
-0.511696 0.411176 -0.483766
0.382453 -0.514437 -0.494603
0.385782 0.502919 -0.464246
0.40131 -0.503093 -0.487873
0.377245 -0.461121 0.511331
0.379982 -0.415833 -0.505957
0.361608 0.502058 -0.418837
0.502612 0.399783 -0.465543
0.384447 0.533947 -0.409214
0.407964 -0.523413 -0.398165
0.508808 0.42922 -0.427801
-0.495353 0.395952 -0.435888
0.394678 -0.422302 0.475918
0.343015 -0.439184 -0.518256
0.389488 0.511544 -0.412867
-0.503117 0.358833 -0.439518
0.411624 -0.430347 -0.497824
0.361066 0.531769 -0.412115
0.335311 -0.467758 -0.422773
0.513558 0.37565 -0.412564
0.395645 0.529823 -0.402182
-0.499829 0.396691 -0.424355
0.443841 -0.487292 -0.387978
0.38859 -0.535398 -0.395896
0.391454 -0.510765 -0.364652
0.408719 -0.511101 -0.322254
0.370422 0.490862 -0.326368
-0.542992 0.382624 -0.304267
0.392835 0.470406 0.342264
0.347462 -0.507747 0.289288
0.366622 0.336382 -0.528452
0.363551 0.355318 -0.524562
0.517653 0.367989 0.36337
-0.503523 0.372733 0.356333
0.376501 0.479359 0.362661
0.464246 0.380916 0.372929
0.416981 0.378539 0.512089
0.505425 0.376411 0.357334
0.380974 0.38382 -0.478147
0.484368 0.373768 0.382631
0.388285 0.419877 0.505839
0.410405 0.395758 0.502443
0.391576 0.470823 0.408305
0.385623 -0.471573 0.370602
0.484894 0.380897 0.415495
0.381547 0.417346 0.484867
0.381816 0.495054 0.405427
0.342727 -0.465887 0.39987
0.391716 0.393029 0.527502
0.486456 0.359777 0.454189
-0.480588 0.371833 0.425693
0.390152 0.428785 -0.445564
0.35704 -0.485862 0.475597
0.36968 0.435617 0.497366
0.386912 0.4544 -0.525303
0.380803 0.534825 0.457525
0.365352 -0.468814 0.436781
-0.47969 0.395932 0.479218
0.338383 0.454104 -0.496987
0.39926 0.480941 0.460076
-0.494284 0.385764 0.451823
0.369903 0.501743 -0.490311
0.39819 0.494686 0.472425
0.502675 0.37503 0.467218
-0.510541 0.377224 0.475974
0.397099 0.496197 0.532148
0.33859 0.498387 -0.51255
0.37912 0.535867 0.481473
0.39013 -0.507175 0.466594
0.466627 0.357399 0.457592
-0.499082 0.364761 0.462618
0.424407 0.511871 0.461489
0.405354 0.452402 -0.495696
0.316644 0.460458 0.469488
0.380932 -0.473838 0.523444
0.463264 0.39444 0.481583
-0.501068 0.391203 0.517553
0.340317 0.506564 0.470053
0.391692 0.485922 -0.496175
0.393001 0.500391 0.458835
0.365049 -0.521705 0.487016
0.492407 0.369882 0.492647
-0.500399 0.373968 0.469865
0.377169 -0.514429 0.501915
0.358258 -0.509762 -0.50516
0.399689 0.514624 -0.511707
0.380388 -0.510831 -0.503494
0.51258 0.361105 -0.480628
-0.469605 0.386687 -0.519099
0.401139 -0.462302 0.474678
0.375464 -0.502555 -0.505209
0.361092 0.488647 -0.529332
0.397706 -0.540734 -0.505206
0.472172 0.411919 -0.487677
-0.516831 0.404098 -0.52179
0.39696 -0.485736 0.48716
0.394306 -0.477666 -0.514947
0.364076 0.522272 -0.477282
0.398662 -0.541109 -0.498942
0.516422 0.399313 -0.507446
-0.522209 0.399201 -0.505486
0.400355 0.532525 -0.477823
0.402794 -0.507764 -0.454338
0.501145 0.410715 -0.452156
-0.503538 0.406886 -0.505937
0.382736 -0.461898 0.535929
0.369399 -0.453732 -0.512072
0.333595 0.509902 -0.461144
0.401709 -0.493616 -0.449704
0.495316 0.391441 -0.463523
-0.481184 0.420685 -0.472563
0.37568 -0.438774 0.49391
0.394311 -0.446892 -0.530181
-0.449133 0.409334 -0.434523
0.397449 -0.453931 -0.498946
0.48846 0.409463 -0.454184
-0.54047 0.398146 -0.434279
0.349233 -0.442059 -0.533933
0.376591 0.519051 -0.405052
0.416005 -0.458027 -0.457552
-0.503668 0.388298 -0.436693
0.413773 -0.406872 0.508112
0.378384 0.442276 -0.445533
0.51227 0.383573 -0.456967
0.389314 -0.417147 0.515466
0.381316 -0.434445 -0.526352
0.396653 0.535769 -0.408637
0.36933 -0.374187 0.488643
0.383773 0.517658 -0.386139
0.395933 -0.512501 -0.421411
0.536603 0.368459 -0.43199
-0.484554 0.408735 -0.401875
0.374264 -0.399163 0.511438
0.393757 0.478964 -0.402726
0.392935 -0.496502 -0.389448
-0.525085 0.386741 -0.387219
0.380533 0.538624 -0.369958
-0.529827 0.4267 -0.363954
0.392131 -0.326424 0.492
0.373459 0.484311 0.306252
0.363176 0.413464 0.484158
0.404021 0.378036 0.500569
0.534887 0.374916 0.373992
0.372383 0.389374 0.519962
0.509157 0.430714 0.401105
0.39127 0.408273 -0.480936
0.389339 -0.524103 0.407704
-0.492888 0.401511 0.416409
0.421457 0.528495 0.416905
0.358944 -0.493009 0.390413
-0.465778 0.365712 0.381422
0.373094 0.43537 0.51817
0.410228 0.448747 -0.483353
0.496069 0.373588 0.434801
0.416555 0.442671 0.506109
0.39985 0.486501 0.408508
0.476355 0.419494 0.436717
0.376158 0.443997 -0.509484
0.391665 0.498367 0.434007
0.380531 -0.482887 0.428083
0.512742 0.385757 0.429521
-0.498957 0.384721 0.458198
0.39021 0.436515 -0.516676
0.408354 0.514363 0.430681
0.383104 -0.487215 0.455803
0.486959 0.375 0.425066
-0.467198 0.400138 0.422279
0.395839 0.476473 0.486511
0.384724 0.471362 -0.518284
0.380314 0.513846 0.465775
0.393105 -0.539847 0.469605
0.515245 0.392249 0.44526
-0.508722 0.386279 0.468436
0.350128 0.478253 0.476916
0.376303 0.491115 -0.48731
0.41054 0.527039 0.503812
0.382793 -0.486471 0.47708
0.508109 0.365668 0.479063
-0.475402 0.388938 0.499387
0.387212 0.50369 0.507983
0.36701 0.454076 -0.538551
0.401966 0.497037 0.473277
0.398868 -0.53888 0.465472
0.545294 0.364408 0.462148
-0.493806 0.374015 0.465763
0.383326 0.516129 0.484257
0.384048 0.478077 -0.53498
0.370841 0.478376 0.472782
0.395361 -0.458845 0.476623
0.467677 0.388199 0.493221
-0.485909 0.364403 0.489957
0.371147 0.47481 0.516976
0.40394 0.505961 -0.479493
0.398327 0.519983 0.498719
0.379405 -0.497774 0.533139
0.512687 0.425148 0.512119
-0.471295 0.401052 0.489962
0.383588 -0.514826 0.487626
0.43958 -0.510668 -0.535695
0.37407 0.472588 -0.512972
0.416458 -0.527967 -0.503631
0.518578 0.386955 -0.487918
-0.50976 0.348956 -0.50847
0.397685 -0.462827 0.523882
0.372558 -0.494796 -0.529723
0.40252 0.483307 -0.492372
0.370463 -0.504216 -0.484502
0.505094 0.351127 -0.508539
-0.47525 0.422378 -0.508796
0.426487 -0.49958 0.503974
0.395804 0.494777 -0.469672
0.36113 -0.492903 -0.502453
0.498797 0.431038 -0.458982
0.378499 -0.477086 0.496337
0.442363 -0.501221 -0.496319
0.474552 0.401068 -0.453699
-0.501712 0.404837 -0.453472
0.389523 -0.452572 0.494528
0.388098 -0.486682 -0.48878
0.399253 0.506095 -0.462375
0.391979 -0.504442 -0.417159
0.500748 0.378619 -0.43313
0.342226 -0.459027 0.493117
0.408582 0.481268 -0.469344
0.417931 -0.475064 -0.436425
0.51543 0.421453 -0.437549
-0.463928 0.37824 -0.455027
0.400108 -0.428312 0.506088
0.362098 -0.411902 -0.507076
0.389958 0.500715 -0.460512
0.498801 0.422792 -0.422
-0.505431 0.398967 -0.497073
0.406173 -0.451939 -0.475203
0.397452 -0.497614 -0.39291
0.525468 0.428872 -0.439655
-0.487971 0.413329 -0.435247
0.362624 -0.427409 0.512348
0.394062 0.527738 -0.453168
0.49596 0.423616 -0.39964
0.403433 -0.400567 0.506685
0.400433 -0.397628 -0.464735
0.415455 0.492072 -0.408772
0.393457 -0.476251 -0.408918
0.500025 0.394879 -0.412822
-0.507387 0.40567 -0.394545
0.362799 -0.380876 -0.466551
0.3996 0.504809 -0.400209
0.3907 -0.504565 -0.406366
0.505264 0.426432 -0.413561
0.390985 -0.390018 -0.477906
0.404762 0.50346 -0.369282
0.493034 0.409292 -0.412172
0.408667 -0.495431 -0.353388
-0.5056 0.425684 -0.38041
0.394307 -0.367638 0.497772
0.41863 -0.342978 -0.505695
0.391221 -0.344196 0.491463
0.374951 0.505378 -0.342198
-0.502972 0.391924 -0.330338
0.394252 -0.372507 -0.509864
0.409191 0.520844 -0.338672
0.397236 -0.476125 -0.347753
0.401658 -0.49649 -0.307253
0.514048 0.413138 0.31369
-0.534998 0.408885 0.349694
0.508889 0.379394 0.357235
0.434089 0.495349 0.346265
-0.518356 0.371893 0.318945
0.420835 0.339446 0.490741
-0.515018 0.395267 0.312853
0.378066 0.328539 0.50098
0.404705 0.504879 0.360136
-0.503543 0.412278 0.323825
0.413034 0.341085 -0.502157
0.526154 0.39515 0.349006
-0.482437 0.377873 0.312319
0.391464 0.483144 0.375023
0.382 -0.523407 0.349064
0.482563 0.402454 0.363119
0.389448 0.380423 -0.496329
0.392608 -0.481156 0.327463
0.397447 -0.485952 0.405276
0.420086 0.399658 -0.519688
0.489941 0.362149 0.415202
-0.491932 0.427846 0.41189
0.402236 0.422685 0.482686
0.396795 0.411339 -0.512889
0.401228 -0.494958 0.400218
-0.531835 0.38403 0.388151
0.388948 0.411103 0.565049
0.399147 0.522968 0.392124
0.467365 0.412908 0.405249
-0.478732 0.432763 0.416117
0.388098 0.421358 0.532811
0.403333 0.483201 0.425529
0.368961 -0.508501 0.4052
-0.5302 0.402974 0.443572
0.410783 0.407366 0.47587
0.394923 0.461937 -0.492107
0.419591 0.450677 0.446174
0.397539 -0.493504 0.427881
0.492632 0.413016 0.448057
0.386855 0.479542 0.481289
0.39527 0.462402 -0.521513
0.390229 0.511223 0.450144
0.386688 -0.468513 0.4575
0.459746 0.394852 0.469244
-0.505746 0.399422 0.417252
0.396463 0.472656 -0.484177
0.374378 0.505664 0.443204
0.411692 -0.497409 0.451548
0.49708 0.355931 0.442227
-0.508158 0.414904 0.454954
0.40316 0.461786 0.466755
0.390065 0.442972 -0.465191
0.409573 0.491655 0.487178
0.424734 -0.550917 0.465816
0.512556 0.422347 0.433275
0.41131 0.47499 0.502605
0.39409 0.440441 -0.467753
0.384098 0.503991 0.521544
0.399896 -0.49981 0.427257
0.485343 0.359146 0.464861
-0.507004 0.409032 0.467722
0.421573 0.451262 0.487656
0.377844 0.48425 -0.546319
0.401319 0.484311 0.482827
0.484652 0.368593 0.476054
-0.498237 0.369698 0.484775
0.406068 0.500804 0.527244
0.428662 0.533042 -0.491055
0.426405 0.487074 0.491276
0.389406 -0.501783 0.485179
0.519474 0.372881 0.493354
-0.501988 0.412369 0.51333
0.407886 -0.503821 0.501658
0.399737 -0.522372 -0.48154
0.369704 0.492168 -0.507879
0.410753 -0.499 -0.458335
0.501808 0.407312 -0.488431
-0.495949 0.356664 -0.50459
0.414403 -0.496952 0.52716
0.401773 -0.473165 -0.514323
0.403672 -0.473917 -0.481415
-0.493553 0.36362 -0.485639
0.424036 -0.495832 0.497909
0.431994 -0.481029 -0.501277
0.430325 0.505612 -0.450992
0.406513 -0.549067 -0.461294
-0.496617 0.405796 -0.475847
0.436031 -0.513853 0.49704
0.417164 -0.472403 -0.513426
0.391386 -0.513842 -0.463045
0.509069 0.440429 -0.482773
-0.511642 0.414109 -0.459296
0.442086 -0.450047 0.491322
0.418753 -0.485771 -0.497152
0.410252 0.513347 -0.489972
0.38448 -0.483811 -0.463276
-0.43944 0.406555 -0.444168
0.402303 -0.47054 0.488024
0.358808 -0.451833 -0.50255
0.407119 0.515096 -0.482084
0.517687 0.410339 -0.472624
0.385551 -0.453179 -0.467341
0.375903 0.493766 -0.431532
0.390292 -0.498219 -0.470515
0.516284 0.428754 -0.451169
-0.490775 0.417034 -0.446035
0.399758 -0.414805 0.480675
0.406133 -0.42533 -0.507349
0.434754 -0.496721 -0.410807
0.49609 0.425865 -0.426735
0.399932 -0.398518 0.504176
0.384862 -0.51253 -0.394965
0.503685 0.399453 -0.419379
-0.507606 0.392127 -0.402647
0.423489 0.473128 -0.398134
0.411768 -0.508838 -0.417267
0.37169 -0.362098 -0.527471
0.385561 0.474114 -0.400855
0.428458 -0.50223 -0.399539
0.402358 -0.371564 0.512053
0.393492 -0.395314 -0.496131
0.415472 0.519633 -0.383351
0.479494 0.420093 -0.382471
0.403225 -0.392604 0.480062
0.3963 0.544967 -0.396629
0.426421 -0.489916 -0.359859
0.499133 0.4051 -0.385191
0.402929 -0.346559 -0.476363
0.415079 -0.521426 -0.381707
0.39938 -0.3773 0.494741
0.44336 -0.359505 -0.489539
-0.503949 0.419778 -0.333736
0.391789 -0.478982 -0.307087
0.47934 0.400359 -0.316689
0.38086 0.516114 -0.379501
0.407573 -0.499527 -0.334606
-0.4833 0.440097 -0.361617
0.420218 0.514866 -0.338201
0.428432 0.496235 -0.336282
0.51784 0.411709 -0.297987
0.393726 -0.496833 -0.311842
0.504622 0.441001 -0.300041
0.50142 0.434209 -0.304255
0.397029 0.287235 0.499325
0.404111 0.545796 0.296052
0.418834 0.331873 0.502762
0.428821 -0.521257 0.329261
0.42381 0.319881 -0.528809
0.494218 0.404456 0.325437
0.398342 0.34007 -0.519296
0.412423 0.51652 0.348818
0.419594 0.395833 -0.505259
0.475376 0.45027 0.376092
0.404978 0.408956 0.510672
0.389969 0.357481 -0.502231
0.39249 0.471854 0.360669
0.517224 0.420287 0.350439
0.434741 0.4681 0.39017
0.435911 0.440156 -0.483695
-0.483531 0.423665 0.399115
0.430943 0.393048 0.514333
0.448084 0.364759 -0.494502
0.394457 -0.504729 0.380706
-0.502543 0.403591 0.372212
0.397969 0.449322 0.522019
0.401546 0.479631 0.412273
0.427861 -0.499664 0.405468
0.536756 0.384647 0.431052
-0.453064 0.42189 0.386831
0.374527 0.427729 -0.491112
0.390242 0.493553 0.418921
0.493761 0.426463 0.451362
-0.483284 0.402962 0.415234
0.421016 0.425736 0.492367
0.366294 0.396942 -0.49072
0.370498 0.5022 0.402012
0.40623 -0.480863 0.399769
0.503323 0.363035 0.430834
-0.515201 0.417894 0.412174
0.407732 0.434579 0.462712
0.529253 0.393821 0.47047
0.396683 0.444632 0.501684
0.454013 0.461085 -0.488446
0.49306 0.416834 0.440697
-0.469767 0.434385 0.440065
0.385192 0.434226 0.522065
0.443935 0.461413 -0.513739
0.413134 -0.508337 0.446607
0.510226 0.41112 0.456162
0.440386 0.437079 0.503937
0.405583 0.459369 -0.556813
0.397436 -0.496218 0.460869
0.490555 0.393455 0.460253
-0.505882 0.43637 0.434964
0.445753 0.511694 0.501468
0.41741 0.545524 0.459423
0.380951 -0.484298 0.452097
0.497381 0.377561 0.497391
-0.487235 0.458554 0.488087
0.38706 0.51018 0.490435
0.413008 0.498026 -0.532716
0.41043 0.473205 0.454978
0.503572 0.429218 0.469021
-0.471969 0.392079 0.4949
0.414616 0.520044 0.465174
0.454158 0.483135 -0.506471
0.391244 0.5417 0.4527
0.379443 -0.517303 0.529212
0.427074 0.418899 0.541634
-0.514657 0.39915 0.515873
0.399694 -0.495151 0.483243
0.43506 -0.516913 -0.498409
0.422912 0.524741 -0.513235
0.425813 -0.50969 -0.517959
0.541054 0.461331 -0.488618
-0.495964 0.407706 -0.508662
0.426275 -0.51837 0.483708
0.411526 -0.504105 -0.499319
0.427305 0.513994 -0.471611
0.407036 -0.513377 -0.485959
0.481694 0.405584 -0.526007
-0.51374 0.416139 -0.482609
0.407044 -0.465064 0.477043
0.432512 -0.473362 -0.490217
0.414789 0.482858 -0.485329
0.367848 -0.493566 -0.507038
0.459397 0.399179 -0.492344
-0.490676 0.373011 -0.493218
0.421576 -0.455458 0.459717
0.431017 -0.45553 -0.519106
0.433889 0.485829 -0.459546
0.447464 -0.510161 -0.490845
0.526204 0.421069 -0.494735
-0.501382 0.422974 -0.490695
0.420201 -0.420835 0.512682
0.423689 -0.467077 -0.496134
0.467413 0.493872 -0.449128
0.389439 -0.52299 -0.467951
0.496582 0.409775 -0.453576
-0.486536 0.429781 -0.491658
0.405891 -0.433465 0.494697
0.422731 -0.490159 -0.495334
0.424561 0.509426 -0.467754
0.449436 -0.500085 -0.418805
0.472413 0.446903 -0.438445
-0.474233 0.469351 -0.452569
0.413375 -0.409043 0.519079
0.407374 0.468265 -0.428598
0.423415 -0.484661 -0.449521
-0.491698 0.399523 -0.437979
0.442429 -0.424736 0.469408
0.426736 -0.415632 -0.493814
0.449035 0.490223 -0.398132
0.423985 -0.500068 -0.456419
-0.479433 0.424584 -0.412538
0.438314 -0.44127 -0.485069
0.413682 -0.510272 -0.38307
0.527964 0.427388 -0.416685
0.415741 -0.444012 0.517014
0.453998 0.498339 -0.415843
0.509522 0.413319 -0.368465
-0.492904 0.433085 -0.399467
0.429461 -0.368105 0.527743
0.447924 -0.372954 -0.482822
0.400233 0.48695 -0.37322
0.426497 -0.519001 -0.367538
-0.498759 0.43564 -0.402974
0.431274 -0.389281 0.514898
0.426692 -0.36081 -0.511012
0.446801 -0.480244 -0.400605
-0.505405 0.419392 -0.380627
0.396544 0.508159 -0.406102
0.422221 -0.501991 -0.368654
0.500312 0.442656 -0.391547
-0.470111 0.429847 -0.411296
0.41872 -0.36446 0.487751
0.43202 -0.503894 -0.361202
0.457437 0.424644 -0.368828
-0.448869 0.429215 -0.399856
0.396387 -0.340032 0.494769
0.418436 -0.339079 -0.456856
0.400104 0.494276 -0.356762
0.417295 -0.313504 -0.49515
0.389128 0.502437 -0.387844
0.439333 -0.343822 0.498601
0.39187 -0.5211 -0.333575
0.500191 0.410807 -0.295779
0.376632 -0.340438 0.506726
0.479793 0.432067 -0.357993
0.432696 -0.30774 0.507666
0.413522 -0.319244 -0.474859
0.401928 0.500167 -0.31833
0.437638 -0.316387 0.507955
0.433771 -0.521755 -0.291885
0.391144 -0.279532 -0.484308
0.421904 -0.246775 0.508233
0.401538 0.486867 -0.284724
0.402169 -0.277922 0.492859
0.42551 0.281525 0.477962
0.38533 0.268503 -0.498112
0.424682 -0.529715 0.317297
-0.528608 0.400552 0.366641
0.452859 0.307834 -0.46284
0.43859 0.479378 0.343746
0.406017 -0.495569 0.33261
0.436991 0.363641 0.526961
0.43833 0.521427 0.36823
0.502577 0.387722 0.344607
-0.511742 0.394929 0.362936
0.399445 0.304713 0.511938
0.408465 0.357637 -0.484071
0.505078 0.386157 0.373604
0.40832 0.349777 0.494132
-0.467018 0.41936 0.347712
0.420938 0.435839 0.372761
0.381956 -0.481959 0.364028
-0.500005 0.400074 0.363131
0.402246 0.400949 0.470636
0.426538 0.405068 0.520675
0.404584 0.443071 -0.492054
-0.479896 0.442764 0.42191
0.441413 0.416017 0.518302
0.448271 0.380344 -0.504188
0.395703 0.518207 0.391375
0.439263 -0.507499 0.410809
0.499958 0.386468 0.419819
-0.543212 0.412121 0.428718
0.459906 0.516823 0.421161
0.427201 -0.48666 0.439843
0.48068 0.407707 0.423117
-0.511381 0.432659 0.415968
0.40808 0.440921 0.499223
0.409122 0.478529 0.424684
0.512596 0.426879 0.431225
0.417854 0.43098 0.507858
0.40613 0.448334 -0.496769
0.420952 0.514228 0.38678
0.425783 -0.490359 0.400411
0.482974 0.399762 0.457157
0.420636 0.418183 -0.502737
0.42123 0.502659 0.487344
0.394433 -0.45973 0.436294
0.415264 0.459801 0.485247
0.480332 0.482345 -0.511609
0.445552 0.491047 0.433978
0.420088 -0.505766 0.460897
0.518713 0.422976 0.463857
-0.493202 0.430585 0.440506
0.416056 0.485199 0.510539
0.388139 0.505346 0.466592
0.434949 -0.492633 0.466807
0.509065 0.395296 0.425208
0.40699 0.464442 0.530254
0.4117 0.47026 -0.504829
0.435471 0.498403 0.485422
0.445464 -0.553166 0.440607
0.50071 0.429479 0.50664
-0.504924 0.409621 0.496682
0.389312 0.524562 0.512162
0.422193 0.515944 0.523963
0.398791 -0.51609 0.506953
0.454822 0.418898 0.495468
-0.469688 0.414112 0.510819
0.417481 0.532281 0.520389
0.412407 0.490146 -0.517456
0.405552 0.494799 0.496755
0.460204 -0.500214 0.473849
0.477256 0.388688 0.486071
-0.516365 0.414962 0.490707
0.41396 -0.540855 0.472446
0.414843 -0.524305 -0.52915
0.414702 0.499234 -0.504978
0.410788 -0.467237 -0.48667
0.479412 0.440991 -0.507471
-0.502082 0.442684 -0.526221
0.397443 -0.506027 0.525178
0.471616 -0.475852 -0.492188
0.411191 0.47772 -0.530694
0.411021 -0.492448 -0.477675
0.509898 0.403835 -0.51371
-0.50384 0.433045 -0.45742
0.395386 -0.503457 0.501946
0.416456 -0.498505 -0.520195
0.411813 0.511025 -0.473607
0.419206 -0.509999 -0.501259
0.478931 0.423963 -0.484121
0.421137 -0.488519 0.515929
0.434817 -0.483824 -0.515779
0.420214 0.483118 -0.467729
0.404472 -0.491844 -0.463924
0.503642 0.431567 -0.475582
-0.497173 0.432875 -0.480508
0.416078 -0.446079 -0.491608
0.433239 0.495416 -0.477895
0.437705 -0.47779 -0.456007
0.502547 0.470284 -0.457994
-0.521075 0.438719 -0.460851
0.464714 -0.433605 0.512448
0.386081 -0.45228 -0.506195
0.413084 -0.510671 -0.444363
-0.502323 0.4325 -0.472321
0.437887 0.536272 -0.441088
0.421754 -0.495892 -0.44929
0.515496 0.40777 -0.429108
-0.51162 0.376015 -0.455464
0.460386 -0.436306 0.543439
0.442847 -0.43876 -0.515784
0.437773 0.503095 -0.422343
0.430974 -0.458042 -0.446573
0.495406 0.418701 -0.467483
0.442915 -0.38306 -0.489463
0.425086 0.492274 -0.399083
0.368523 -0.474343 -0.401976
0.483932 0.437301 -0.451195
-0.479247 0.424597 -0.419137
0.426164 -0.386223 -0.477735
0.431441 0.529275 -0.397235
0.44327 -0.51353 -0.389077
0.490594 0.403297 -0.419071
0.436886 -0.403573 0.477186
0.429233 -0.379836 -0.49729
0.447034 0.495697 -0.380825
0.483629 0.412661 -0.421193
-0.484298 0.451373 -0.356022
0.505515 0.41999 -0.386378
-0.476401 0.410109 -0.386482
0.445786 -0.361209 -0.498996
0.412178 0.562601 -0.402131
0.425132 -0.480851 -0.359173
-0.468159 0.427712 -0.389833
0.43924 -0.341443 0.481435
0.399451 -0.35961 -0.516306
0.445687 0.490805 -0.362461
0.50216 0.461711 -0.375105
0.470412 -0.331778 0.512738
0.41967 -0.337482 0.476315
0.466429 -0.354407 0.506048
0.437114 -0.483483 -0.313009
0.422826 -0.521476 -0.323542
0.490704 0.404787 -0.331859
-0.505062 0.408168 -0.34549
0.460709 0.513882 -0.342464
0.423347 -0.508073 -0.253918
-0.482606 0.417711 -0.303842
0.433742 -0.305555 0.508196
-0.486369 0.432028 -0.330578
0.423361 -0.480278 -0.298642
0.503305 0.413483 -0.27907
0.488157 0.468194 -0.295048
-0.505509 0.427097 -0.303611
0.428329 0.498117 -0.251197
0.425562 -0.50582 -0.284854
-0.515867 0.441723 -0.227416
-0.517808 0.419504 -0.270692
-0.479148 0.426016 -0.253767
0.433814 -0.254842 -0.522665
-0.538268 0.457157 -0.182475
0.422424 0.513663 0.225123
0.42481 -0.471429 0.243332
0.434521 0.2445 0.510758
0.414979 0.522086 0.233136
0.383273 -0.523532 0.269848
0.511601 0.40596 0.300055
0.427777 0.32343 0.535197
0.405286 0.488267 0.270118
-0.467141 0.441033 0.262263
0.44158 -0.504671 0.315095
0.417159 0.477499 0.355623
0.475418 0.431328 0.338831
0.431103 0.360202 0.501906
0.433393 0.338277 -0.481768
0.414796 0.499922 0.324937
0.480851 -0.501277 0.342431
-0.516793 0.439356 0.351973
0.427977 0.360094 0.508442
0.522858 0.458673 0.36146
-0.52832 0.417139 0.341203
0.461212 0.509533 0.370022
0.434557 -0.495797 0.364805
0.422545 0.40061 0.505975
0.442959 0.49285 0.365179
0.469805 0.468267 0.377012
-0.483126 0.443469 0.371941
0.447556 0.381562 0.496871
0.426105 0.354339 -0.5097
0.425956 -0.495618 0.340531
0.501011 0.395499 0.407331
-0.51392 0.43866 0.370333
0.431735 0.405324 -0.444392
0.44244 0.532613 0.362564
0.510735 0.444675 0.393846
-0.464676 0.45314 0.37257
0.443832 0.370321 0.50487
0.462074 0.407251 -0.524585
0.440104 0.482322 0.418555
0.417149 -0.498264 0.378701
-0.514977 0.423879 0.39473
0.445456 0.403077 -0.516435
0.44705 0.491985 0.40011
0.42704 -0.535004 0.391789
0.454316 0.452998 0.521922
0.402117 0.476622 0.432486
0.435004 -0.500956 0.467989
0.464663 0.403083 0.441337
0.408866 0.398604 0.533272
0.432485 0.4194 -0.515624
0.420678 0.468026 0.428983
0.513949 0.418302 0.41304
-0.479189 0.469512 0.413433
0.424309 0.44158 0.472856
0.43616 0.451337 -0.497814
0.435252 0.496354 0.459974
0.445423 -0.499593 0.461667
-0.487368 0.434474 0.430127
0.413769 0.475592 0.499711
0.433457 0.445812 -0.520688
0.42664 -0.504948 0.470413
-0.489967 0.438836 0.416413
0.442734 0.495032 0.529691
0.431293 0.469688 -0.515011
0.400031 0.514478 0.495987
0.429882 -0.494833 0.456153
0.522287 0.397503 0.487942
-0.50249 0.421166 0.447998
0.445419 0.454948 -0.466797
0.415553 0.47674 0.48182
0.41844 -0.476619 0.473906
0.498834 0.423162 0.466635
-0.527866 0.40448 0.479382
0.472711 0.473126 0.503004
0.388091 0.465096 -0.503243
0.416801 0.506488 0.47874
0.413592 -0.511917 0.466127
0.498735 0.409312 0.485964
-0.507895 0.409139 0.451078
0.428049 0.491772 0.498136
0.403372 0.516961 -0.508346
0.46753 0.491168 0.492623
0.418834 -0.502333 0.467916
0.517128 0.421341 0.485661
-0.504151 0.392601 0.489536
0.430894 0.498852 0.515885
0.464038 0.487351 -0.509013
0.423571 0.505948 0.502698
0.399904 -0.522553 0.504907
0.464053 0.430478 0.497232
-0.491627 0.452611 0.461466
0.435436 -0.454607 0.506917
0.431711 -0.451268 -0.514832
0.434828 0.51263 -0.513819
0.44099 -0.513363 -0.494331
0.514544 0.43182 -0.499644
-0.480549 0.440744 -0.512987
0.416501 -0.493942 0.526572
0.463915 0.472778 -0.503726
0.429147 -0.483528 -0.44488
0.487808 0.45331 -0.475233
-0.494706 0.414127 -0.475806
0.45965 -0.49314 0.490173
0.466377 -0.508691 -0.532912
0.444546 0.515775 -0.484326
0.449116 -0.491584 -0.498794
0.488339 0.424874 -0.479193
-0.500174 0.422266 -0.492106
0.455109 -0.467237 0.525699
0.393748 -0.468288 -0.487901
0.425767 0.483411 -0.518526
0.448054 -0.457775 -0.46771
0.505615 0.466559 -0.466261
0.42971 -0.482955 0.49101
0.414581 0.476901 -0.476116
0.484863 0.461983 -0.47605
0.420176 -0.439629 0.50775
0.432054 -0.427923 -0.447577
0.433173 0.504775 -0.413157
0.435627 -0.493731 -0.456833
0.50473 0.442265 -0.471886
-0.518813 0.42572 -0.469901
0.435775 -0.452131 -0.526517
0.419282 0.521048 -0.454869
0.440473 -0.487066 -0.463305
-0.487458 0.448108 -0.456643
0.439128 -0.421716 0.497115
0.441001 -0.387606 -0.477068
0.503239 0.443921 -0.406231
-0.500966 0.451193 -0.457563
0.447902 -0.418047 0.480129
0.420229 -0.386219 -0.480543
0.406581 -0.538281 -0.414254
0.501817 0.425077 -0.389799
-0.520572 0.417066 -0.40326
0.45587 -0.430675 0.523788
0.443614 -0.379992 -0.51293
0.458138 -0.503513 -0.400891
0.515875 0.436886 -0.410478
0.401738 -0.385709 0.519963
0.465203 -0.374206 -0.515612
0.46557 0.48236 -0.360979
0.508701 0.46979 -0.385723
-0.46629 0.450719 -0.373617
0.435557 -0.3858 0.459998
0.458926 0.519134 -0.376473
0.45889 -0.503785 -0.362376
0.519687 0.425146 -0.383493
0.442187 -0.384529 0.516504
0.428707 -0.320211 -0.489618
0.485151 -0.47344 -0.359404
-0.479722 0.449943 -0.398189
0.405423 -0.40497 0.507765
0.505091 0.442591 -0.353999
-0.527586 0.448158 -0.339099
0.431895 -0.392826 0.486676
0.477663 -0.361399 -0.513932
0.425448 0.524241 -0.390798
0.536251 0.424682 -0.361905
-0.489511 0.430797 -0.366044
0.468711 -0.335022 0.519464
0.431699 -0.335381 -0.515515
0.466172 0.507331 -0.359526
0.429935 -0.355542 0.478187
0.440094 -0.351482 -0.532328
0.433014 -0.545507 -0.344735
0.491659 0.398311 -0.347786
0.474967 0.464587 -0.335099
0.437247 -0.498846 -0.349529
-0.494302 0.457291 -0.349756
0.452684 0.518287 -0.327472
0.437672 -0.527202 -0.288529
0.426932 0.487812 -0.300029
0.48029 0.434355 -0.25868
0.444935 -0.269341 -0.526893
0.413116 0.510814 -0.30154
0.482006 0.454103 -0.279618
0.432533 -0.292951 0.526785
0.454985 -0.279292 -0.491797
-0.504746 0.439778 -0.267691
0.446539 -0.288544 0.480397
0.488585 0.496951 -0.275134
0.498155 -0.493167 -0.266238
0.448027 -0.261221 0.488693
0.419938 -0.24838 -0.490525
0.405436 0.476668 -0.260248
0.479148 0.497579 -0.215058
0.453562 -0.524408 -0.225332
0.47215 0.442185 -0.232645
0.424802 -0.21861 -0.532171
0.488616 0.453417 -0.236012
-0.470496 0.476347 -0.210246
0.434577 -0.492637 -0.182617
-0.493197 0.441333 -0.208967
0.502113 0.436071 0.172576
0.502943 0.46483 0.213515
0.432557 -0.47198 0.228225
0.422609 0.481156 0.232715
0.433475 0.286328 0.513379
0.409785 0.514713 0.213631
0.479232 0.232592 0.475384
0.497327 0.453075 0.270732
0.410719 0.261387 0.54034
-0.483057 0.454315 0.229504
0.422129 -0.496474 0.299345
0.486178 0.404115 0.242622
-0.484637 0.452484 0.259963
0.465409 0.290799 0.479001
0.42774 0.552902 0.300951
0.437234 -0.495955 0.260917
0.469316 -0.47705 0.289229
0.446787 0.280225 -0.518677
0.450312 -0.528295 0.321096
0.492496 0.447027 0.331096
0.415981 0.309878 -0.467338
0.508973 0.420145 0.335695
0.431756 0.298738 0.52733
0.450527 0.334948 -0.486908
0.416795 -0.507582 0.342021
0.431428 0.48187 0.316878
0.41053 -0.487399 0.338413
