ply
format ascii 1.0
comment sampling resolution: 0.01
comment noise level: 0.02
comment Created by Open3D
element vertex 1717
property double x
property double y
property double z
end_header
-0.499638 0.439231 -0.326964
0.427109 -0.265081 0.459377
0.392779 -0.3077 -0.473965
0.420191 0.496832 -0.307001
0.414791 -0.487175 -0.27777
0.499258 0.421496 -0.291574
-0.543508 0.44645 -0.304484
0.433975 -0.287607 0.464278
0.415881 -0.268694 -0.491262
0.437857 -0.484019 -0.291866
-0.495299 0.442438 -0.292312
0.398117 -0.256746 0.513018
0.444393 -0.250557 -0.486492
0.421941 0.502592 -0.285858
0.434466 -0.500076 -0.29075
0.531822 0.428425 -0.277648
0.385729 -0.26287 0.543102
0.419562 -0.258838 -0.478578
0.4036 0.503375 -0.270887
0.475915 0.412397 -0.245961
-0.49573 0.435002 -0.245713
0.396561 -0.236229 0.49368
0.44656 -0.220691 -0.537621
0.44885 0.486217 -0.263674
0.444176 -0.491122 -0.25455
0.486076 0.445734 -0.277449
-0.473357 0.377194 -0.231499
0.410862 -0.267529 0.505997
0.40062 -0.504943 -0.270979
-0.518881 0.445783 -0.234432
0.425736 -0.234068 0.48563
0.418608 -0.221089 -0.482776
0.42265 -0.488938 -0.216168
0.500504 0.398847 -0.260453
-0.482679 0.436704 -0.192286
0.436969 -0.19902 0.503431
0.422952 -0.235127 -0.508975
0.416235 0.486608 -0.223698
0.398452 -0.52301 -0.23545
0.511265 0.388793 -0.239576
0.424581 -0.232932 0.449937
0.398545 -0.493269 -0.229927
0.519929 0.419775 -0.240761
-0.500452 0.423745 -0.217198
0.414244 -0.209399 0.505134
0.373293 -0.200967 -0.471557
0.455371 0.510882 -0.150026
0.436431 -0.48477 -0.2342
-0.507499 0.452065 -0.179991
0.427185 -0.205552 0.51317
0.443382 -0.172237 -0.490301
0.430424 0.488968 -0.20783
0.428686 -0.527929 -0.178405
0.510828 0.427512 -0.198241
-0.490564 0.443544 -0.157075
0.43321 -0.202506 -0.500733
0.374527 0.470686 -0.23139
0.407209 -0.505901 -0.183345
0.512966 0.4176 -0.160452
-0.469766 0.416246 -0.17851
0.464142 -0.15446 0.480194
0.405212 -0.174826 -0.508307
0.423245 0.530008 -0.195982
0.44471 -0.515824 -0.185076
0.51424 0.444725 -0.16301
0.422536 -0.157548 0.515193
0.430105 -0.230989 -0.503697
0.511701 0.42182 -0.158055
-0.498168 0.419068 -0.131775
0.412562 -0.1574 0.517135
0.450566 -0.13915 -0.50715
0.406118 0.49459 -0.162866
0.496584 0.447108 -0.187477
-0.510989 0.422661 -0.147062
0.4152 -0.143139 -0.496604
0.421484 0.510276 -0.163731
0.414247 -0.495883 -0.129682
-0.507065 0.445255 -0.172501
0.415932 -0.141555 -0.488253
0.428353 0.508983 -0.14396
0.389281 -0.509854 -0.130321
0.511019 0.454881 -0.144625
0.391654 -0.128449 0.516908
0.425089 0.505644 -0.0982337
-0.532138 0.438928 -0.124641
0.372378 -0.140879 0.517152
0.40373 -0.140206 -0.470664
0.422882 0.530342 -0.145041
0.405076 -0.441328 -0.0838687
0.494434 0.41316 -0.10601
0.422614 -0.104525 0.477854
0.375016 0.44819 -0.100775
0.435626 -0.525518 -0.0884226
0.505913 0.383658 -0.115904
0.415904 -0.0967295 0.466997
0.437064 0.509929 -0.0951774
0.395608 -0.478162 -0.113865
0.483024 0.417376 -0.0772947
-0.488417 0.409161 -0.0938419
0.398626 -0.113766 -0.529548
0.417731 -0.498583 -0.0983976
-0.497395 0.39351 -0.0957128
0.42174 -0.0726043 0.496675
0.439891 -0.0751031 -0.502391
0.48153 0.446996 -0.0724439
0.425863 0.503983 -0.0824305
0.391568 -0.494037 -0.0516976
0.478234 0.415503 -0.0465793
-0.553954 0.397681 -0.058568
0.43749 -0.0772148 0.518527
0.435784 -0.0490849 -0.498874
0.460926 0.399699 -0.066236
0.457725 -0.0280491 0.500282
0.43885 -0.493634 -0.058476
0.431163 -0.0373101 -0.498413
0.40321 0.474215 -0.0684315
0.416987 -0.484051 -0.0445203
0.436357 -0.0318078 0.477532
-0.512166 0.383117 0.000875075
0.423888 -0.0265432 0.520851
0.407487 0.000761211 -0.477362
0.444443 0.519973 -0.00392859
0.501708 0.440759 -0.0419394
0.404015 0.0224977 0.50729
0.397793 -0.00168836 -0.511007
0.39211 0.493938 -0.00589437
0.443751 -0.464824 -0.00482316
0.52476 0.440684 -0.0259795
0.376679 0.48433 -0.00373371
0.45432 -0.518254 -0.012809
0.437896 0.0188455 0.503548
0.427996 0.0190283 -0.512849
-0.528879 0.428663 0.0412747
0.459559 0.0217217 0.483702
0.401073 0.0522207 -0.499875
0.408255 -0.507509 0.0300826
0.431244 0.512326 0.0457135
0.50737 0.402963 0.00078776
0.433122 0.0490401 -0.52926
0.451718 0.523864 0.0203985
0.502873 0.41583 0.0835802
-0.521759 0.406996 0.0412317
0.443941 0.0643288 0.495502
0.413992 0.513123 0.0530014
0.43339 -0.498381 0.0642418
0.499507 0.410045 0.0802377
-0.481333 0.403009 0.0234563
0.402719 0.0821857 0.487755
0.439679 0.0823301 -0.500699
0.423644 0.509693 0.0401671
0.506826 0.417172 0.0813716
-0.48553 0.409628 0.0929493
0.447388 0.044755 0.508122
0.411324 0.0956132 -0.518636
0.410258 0.507646 0.0921679
0.491372 0.427108 0.117475
-0.488433 0.435141 0.108487
0.408961 0.0780827 0.526867
0.397208 0.0635484 -0.477499
0.440283 -0.462073 0.126535
0.404839 0.121054 0.503277
0.440059 0.11559 -0.495042
0.470799 0.491094 0.0901132
-0.502724 0.447849 0.0582682
0.432181 -0.518099 0.118049
-0.518899 0.432501 0.105277
0.416816 0.121972 -0.509385
0.431116 0.498256 0.12008
0.410904 -0.477844 0.107712
0.480056 0.434136 0.112655
-0.4924 0.413779 0.138669
0.422416 0.147791 0.512063
0.421545 0.0970503 -0.525982
0.453124 -0.48526 0.135766
0.40518 0.156514 0.523657
0.434296 0.210994 -0.49042
0.405468 0.510766 0.154762
0.418478 -0.481311 0.122013
-0.49923 0.437255 0.128258
0.426393 0.137868 0.503144
0.418069 0.155045 -0.477427
0.373473 0.508825 0.157395
0.437071 -0.487741 0.117124
0.486196 0.381831 0.138963
-0.521318 0.422294 0.146492
0.417152 0.161279 0.545576
0.438445 0.152516 -0.486726
0.502828 0.455433 0.133621
-0.505242 0.414062 0.130492
0.433326 0.15471 0.494935
0.395468 0.136875 -0.517964
0.414779 0.504431 0.185793
0.403992 -0.471434 0.145268
0.488033 0.430358 0.190231
-0.521695 0.447186 0.174341
0.429639 0.202477 0.51303
0.409431 0.170284 -0.500781
0.402113 0.491414 0.22072
0.426883 -0.468426 0.139374
0.471262 0.432868 0.245024
-0.456273 0.414188 0.188242
0.428162 0.198511 -0.486603
0.428628 0.511913 0.191986
0.428321 -0.493709 0.213922
-0.477616 0.426363 0.163437
0.421346 0.187021 0.49966
0.410666 -0.495101 0.214806
-0.51991 0.410946 0.217476
0.397575 0.220718 0.490248
0.415237 0.496941 0.267914
0.450256 -0.488635 0.23416
0.484486 0.42497 0.232047
-0.486281 0.392854 0.17161
0.402011 0.245449 0.520504
0.401493 0.26239 -0.533861
0.50974 0.419343 0.252367
-0.490904 0.42795 0.21716
0.4108 0.253686 0.5225
0.435731 0.226311 -0.518979
0.436921 0.500218 0.208142
0.430569 -0.465226 0.226077
0.493262 0.41243 0.255727
0.372096 0.255385 0.479059
0.42304 -0.52918 0.219088
0.389832 0.23979 0.490811
0.412592 0.254263 -0.483066
0.445461 0.513374 0.274466
0.452053 -0.486649 0.266085
0.517927 0.418961 0.255732
-0.50205 0.390911 0.268996
0.447252 0.298689 -0.561445
0.429838 0.534479 0.264033
0.411067 -0.505721 0.265936
0.478872 0.431635 0.26594
0.42634 0.243938 -0.476941
0.405202 0.511017 0.310065
0.411476 -0.454305 0.268856
0.488973 0.411803 0.308555
-0.532445 0.408201 0.273805
0.443611 0.302305 0.476805
0.439207 0.266721 -0.500761
0.427502 -0.500205 0.31262
0.509854 0.447355 0.281329
-0.441973 0.420565 0.307808
0.370123 0.313608 0.512735
0.419291 0.280983 -0.500347
0.425169 0.498457 0.304459
0.411719 -0.50034 0.274066
0.44192 0.389525 0.287333
-0.512203 0.406481 0.310036
0.431446 0.32449 0.484068
0.419355 0.321898 -0.495328
0.448578 0.465505 0.297581
0.396665 -0.49081 0.30945
0.52243 0.394469 0.324104
-0.497509 0.401907 0.303493
0.4393 0.352513 -0.498325
0.43049 0.496395 0.337394
0.454883 -0.445538 0.319004
0.494457 0.429767 0.310136
-0.481722 0.39991 0.323803
0.44359 0.325281 0.497017
0.421545 0.330011 -0.516628
0.412211 0.510895 0.349446
0.41671 -0.489124 0.31977
0.481797 0.417771 0.317059
0.437138 0.329969 0.521754
0.393959 0.519431 0.341651
0.480393 0.380482 0.341895
-0.473453 0.424803 0.332085
0.409171 0.331358 0.500074
0.431372 0.313255 -0.463252
0.462454 -0.509777 0.42151
0.505352 0.392475 0.351153
-0.504625 0.414435 0.374858
0.436518 0.388364 0.481298
0.44629 0.362149 -0.494194
0.398906 0.475212 0.354358
0.397117 -0.499731 0.372569
0.502037 0.424952 0.369502
-0.524297 0.424601 0.331696
0.404429 0.381152 0.494965
0.434059 0.387327 -0.490862
0.422716 0.509228 0.402885
0.416132 -0.504325 0.370286
0.502089 0.386325 0.368937
-0.481782 0.4289 0.383614
0.44489 0.371675 0.477592
0.420893 0.349243 -0.515513
0.387296 0.522919 0.376316
0.401599 -0.498552 0.381413
0.484732 0.418702 0.354549
-0.525981 0.403084 0.364912
0.41656 0.360243 0.489124
0.38868 0.403694 -0.521712
0.424244 0.493045 0.393914
0.378107 -0.498468 0.36086
0.480636 0.410626 0.387081
-0.517245 0.397314 0.388124
0.407332 0.401348 0.478557
0.417362 0.375155 -0.504716
0.40711 0.482409 0.400672
0.435422 -0.492403 0.392308
0.488572 0.42092 0.401935
-0.521514 0.404662 0.406431
0.416406 0.414362 -0.460002
0.402715 0.522873 0.397458
0.41452 -0.500355 0.380192
0.515164 0.371012 0.419818
-0.495206 0.443895 0.414595
0.38422 0.395809 0.500539
0.442917 0.397843 -0.475764
0.395123 0.493366 0.357561
0.436273 -0.483299 0.430757
0.494611 0.444582 0.460086
-0.511501 0.412334 0.422035
0.413658 0.427417 0.508326
0.438078 0.425192 -0.51007
0.414498 0.494703 0.439654
0.388201 -0.528194 0.419081
0.48656 0.474696 0.422593
-0.521292 0.421995 0.401368
0.433031 0.478953 0.506723
0.453702 0.432013 -0.512108
0.413407 0.505298 0.454476
-0.507527 0.414839 0.438279
0.406539 0.450235 0.503913
0.404078 0.457583 -0.510516
0.414691 0.525658 0.45438
0.422318 -0.526335 0.446869
0.485196 0.45276 0.463665
-0.497012 0.424735 0.438204
0.41045 0.436964 0.464374
0.432836 0.482128 -0.499889
0.411571 -0.485848 0.453862
0.500746 0.440694 0.483693
-0.50106 0.436966 0.45995
0.462611 0.476926 0.482565
0.411 0.449603 -0.482758
0.408136 0.518621 0.44814
0.444471 -0.507105 0.466773
0.510887 0.406886 0.451935
-0.516733 0.414527 0.464021
0.381722 0.486305 0.501499
0.440671 0.449517 -0.496567
0.372697 0.472975 0.447559
0.430381 -0.504477 0.496891
0.482854 0.442388 0.479075
-0.489651 0.407182 0.478167
0.44163 0.47158 0.495783
0.397493 0.513109 -0.537654
0.43207 0.488286 0.483474
0.44061 -0.454792 0.505967
0.498137 0.409013 0.504164
-0.480734 0.460247 0.512843
0.429469 0.470924 0.491491
0.38453 0.499357 -0.484644
0.389825 0.510968 0.526079
0.422158 -0.499216 0.491442
0.520086 0.429105 0.523596
-0.498313 0.445991 0.503415
0.427672 -0.4853 0.509622
0.398406 -0.50087 -0.5012
0.426814 0.5088 -0.51584
0.436339 -0.483806 -0.527056
0.518796 0.423672 -0.481532
-0.497832 0.444951 -0.510262
0.444996 -0.474774 0.53067
0.444627 -0.468966 -0.506303
0.434123 0.498767 -0.461629
0.402712 -0.477609 -0.46002
0.493458 0.444289 -0.492764
-0.528471 0.437649 -0.49827
0.432823 -0.4499 0.499747
0.441273 -0.475538 -0.492767
0.446333 0.513902 -0.469387
0.396856 -0.48113 -0.460041
0.517589 0.425269 -0.480859
-0.46693 0.473944 -0.462805
0.405815 -0.44879 0.471241
0.449025 -0.479496 -0.491044
0.432041 0.462703 -0.416912
0.454093 -0.495702 -0.434789
0.511581 0.446419 -0.469817
-0.490611 0.426725 -0.493233
0.404982 -0.450995 0.504935
0.479024 -0.486141 -0.467043
0.442728 0.513816 -0.47785
0.429192 -0.498549 -0.506786
0.487402 0.403021 -0.499626
-0.501584 0.449978 -0.468587
0.445248 -0.42113 0.468632
0.430938 -0.487739 -0.481418
0.406923 0.483859 -0.443841
0.434371 -0.462495 -0.433885
0.505328 0.427458 -0.45442
-0.519028 0.417635 -0.469726
0.468756 -0.446727 0.46675
0.460314 -0.392834 -0.486632
0.446852 0.517972 -0.455551
0.421281 -0.500414 -0.433072
0.504076 0.436379 -0.456637
-0.495173 0.4576 -0.413483
0.435404 -0.432269 0.496245
0.440789 -0.423198 -0.505874
0.435564 0.523064 -0.433939
0.429555 -0.512433 -0.396905
0.511907 0.452301 -0.451408
-0.496416 0.444103 -0.431597
0.432087 -0.425686 0.501132
0.423038 -0.41444 -0.474235
0.459716 -0.528632 -0.432229
-0.504662 0.438443 -0.444663
0.43904 -0.451149 0.508999
0.432482 -0.348141 -0.469044
0.423448 0.483676 -0.381382
0.413422 -0.493639 -0.391509
0.504262 0.432868 -0.430382
-0.531978 0.464831 -0.409279
0.425868 -0.374888 0.456673
0.425207 -0.421106 -0.50977
0.40395 0.481226 -0.395944
0.460657 -0.468579 -0.388698
0.49846 0.442531 -0.370572
0.398341 -0.370469 -0.451498
0.437221 0.49635 -0.374471
0.454888 -0.529551 -0.389022
0.498629 0.459317 -0.395628
-0.461341 0.431179 -0.358956
0.421062 -0.356327 0.497654
0.437509 -0.364962 -0.489505
0.404153 0.498664 -0.349757
0.405255 -0.487426 -0.369078
0.488582 0.438263 -0.352097
-0.504981 0.44023 -0.355745
0.427146 -0.381073 0.507123
0.469972 -0.33282 -0.498041
0.412122 0.493013 -0.344224
0.504055 0.448323 -0.385121
-0.428968 0.387182 -0.366815
0.435081 -0.311927 0.46128
0.462754 -0.363207 -0.501757
0.437814 0.536227 -0.367906
0.38686 -0.505938 -0.344088
0.506062 0.401438 -0.363499
-0.481394 0.409906 -0.371116
0.425309 -0.388923 0.528751
0.465536 -0.3606 -0.477295
0.415363 -0.521274 -0.361115
0.521756 0.449255 -0.31472
-0.492797 0.410459 -0.36066
0.423577 -0.367899 0.461578
0.445954 -0.350664 -0.447027
0.431495 0.474082 -0.355829
0.477983 0.463282 -0.313654
-0.505841 0.437278 -0.336887
0.469783 -0.319094 0.488351
0.430194 -0.350311 -0.503325
0.403953 0.482809 -0.295571
0.396368 -0.495038 -0.265084
0.523651 0.422151 -0.307606
-0.491727 0.426293 -0.361865
0.408103 -0.357324 0.534974
0.422684 -0.304814 -0.480754
0.427069 0.494573 -0.33324
0.402477 -0.517638 -0.289131
0.510801 0.428968 -0.309948
-0.484599 0.416703 -0.352301
0.412146 -0.280138 0.482764
0.42918 0.508913 -0.312573
0.443557 -0.491135 -0.315694
0.524062 0.414095 -0.325766
0.450986 -0.297204 0.47767
0.453386 -0.313983 -0.51092
0.424595 0.478619 -0.310119
0.416039 -0.504081 -0.305265
0.526628 0.402245 -0.325773
-0.534875 0.408032 -0.295594
0.440966 -0.278728 0.500836
0.423288 -0.284463 -0.50025
0.434516 0.470449 -0.322996
0.449879 -0.502564 -0.274082
0.520214 0.439742 -0.320623
0.439045 -0.287062 0.488303
0.436235 -0.27311 -0.500484
0.414298 0.498496 -0.27154
0.407284 -0.513409 -0.295391
-0.521322 0.391357 -0.279459
0.42905 -0.233265 0.528456
0.441473 -0.261589 -0.534272
0.416361 0.498252 -0.286404
0.439936 -0.477589 -0.260315
-0.50471 0.446941 -0.243524
0.417237 -0.254919 -0.534779
0.447655 0.512188 -0.243963
0.426597 -0.47308 -0.261493
0.473293 0.39978 -0.267268
-0.496135 0.418188 -0.253263
0.42361 -0.232094 -0.511808
0.49943 0.415978 -0.278777
0.397695 -0.198189 0.478355
0.422664 -0.259939 -0.495023
0.410808 0.492967 -0.244427
-0.514113 0.43685 -0.202494
0.425493 -0.199899 0.514436
0.40063 -0.229922 -0.4936
0.437526 -0.474762 -0.22996
0.398468 -0.189079 -0.538596
0.456658 0.456114 -0.210883
0.448364 -0.523945 -0.227512
0.478128 0.426659 -0.253563
-0.519499 0.418028 -0.223546
0.442773 -0.188662 0.479824
0.443901 -0.201615 -0.529032
0.437471 0.491247 -0.192594
0.460278 0.400073 -0.215057
-0.53165 0.400353 -0.222367
0.427611 -0.176032 0.505379
0.444119 0.481206 -0.219345
0.440983 -0.52219 -0.2089
0.509973 0.422624 -0.251774
-0.479191 0.426953 -0.178116
0.437605 -0.180093 0.525831
0.427251 -0.198628 -0.473519
0.444902 -0.497047 -0.194943
0.530073 0.423906 -0.202026
-0.49165 0.475884 -0.198372
0.426012 -0.19038 -0.495616
0.422193 0.491596 -0.168749
0.492595 0.416432 -0.19584
-0.499653 0.410201 -0.201027
0.412451 -0.217986 -0.485023
-0.491879 0.456754 -0.154134
0.428264 -0.157087 -0.52225
0.430136 0.504821 -0.13218
0.432084 -0.507647 -0.164101
0.461646 -0.146335 0.482324
0.447088 -0.145731 -0.528575
0.423073 -0.549026 -0.1182
0.547335 0.392061 -0.142909
-0.510575 0.399451 -0.155632
0.396141 -0.162851 -0.497375
0.490503 0.432843 -0.151559
-0.521379 0.413404 -0.136908
0.424077 -0.100982 0.510431
0.421001 -0.0921794 -0.503312
0.467032 -0.480187 -0.110376
0.51322 0.446129 -0.140808
-0.505994 0.415888 -0.108978
0.453277 0.494163 -0.11815
0.508301 0.448083 -0.111757
-0.505767 0.444006 -0.0978038
0.414582 -0.124033 0.514572
0.440278 -0.0868149 -0.513099
0.442313 0.459386 -0.11749
0.480451 -0.51177 -0.106746
-0.510201 0.479245 -0.103401
0.418936 0.511181 -0.0937811
0.43054 -0.476897 -0.0965315
0.47147 0.440531 -0.10769
-0.521114 0.407259 -0.130664
0.420809 -0.0798906 0.447086
0.410632 -0.0422785 0.52737
0.418769 -0.0804991 -0.522858
0.442369 0.507949 -0.0966896
0.408498 -0.519784 -0.0773256
0.406916 -0.084262 0.486724
0.409098 0.494258 -0.0865196
0.447621 -0.544119 -0.0646271
0.493079 0.431277 -0.0826646
-0.533956 0.457959 -0.0612891
0.404499 -0.0579402 0.482069
0.385097 0.495613 -0.0593231
0.504892 0.441921 -0.0440695
-0.473638 0.434853 -0.0261104
0.458285 -0.0181324 0.505621
0.459759 -0.0545476 -0.482291
0.430738 -0.506993 -0.0648218
-0.516792 0.435964 -0.0405377
0.438004 -0.00463557 -0.528706
0.428507 0.518882 -0.0296392
0.39217 -0.496732 -0.0290558
0.4839 0.439856 -0.00820561
-0.457954 0.470906 -0.0681779
0.405752 -0.0379009 0.528219
0.452898 -0.00335934 -0.512602
0.447432 0.51273 -0.027466
-0.502713 0.427183 -0.0232371
0.40079 -0.0577707 0.474341
0.439383 0.00216717 -0.506667
0.441499 0.48836 0.000536633
-0.51825 0.41944 0.000388956
0.418158 0.00794917 0.504383
-0.473715 0.458403 0.00331791
0.429365 -0.0151519 0.519166
0.445093 0.465759 -0.0179536
0.459102 -0.479436 -0.0176276
-0.532823 0.476857 0.0114436
0.373448 0.0392284 0.511615
0.472628 0.00780256 -0.487719
0.440235 0.53836 0.0233336
0.420689 -0.485099 0.0163383
0.499892 0.392611 -0.00270405
0.427216 0.0229365 0.470077
0.493764 0.44347 0.0513976
0.447157 0.0507835 0.467411
0.431471 0.0510242 -0.495771
0.432153 0.498595 0.0278352
0.489369 0.438054 0.0414588
-0.475789 0.434193 0.0739542
0.454438 0.0533613 0.485297
0.451464 0.0563303 -0.496608
0.438601 -0.479062 0.0392351
0.48421 0.396888 0.0204725
0.429953 0.039879 0.52139
0.423195 0.0517957 -0.514821
0.400765 0.490613 0.0758428
0.379334 0.0464648 0.496706
0.394604 0.0555335 -0.513828
0.428891 0.514243 0.0586337
0.409334 -0.512538 0.0907927
0.482224 0.443616 0.0834284
0.433446 0.0999591 0.512461
0.437239 0.0522506 -0.547914
0.465285 -0.528738 0.115188
0.527439 0.431457 0.0695961
-0.51181 0.396899 0.0602057
0.422983 0.0907593 0.495899
0.428433 0.0808409 -0.502436
0.42604 0.464641 0.0691768
0.433929 -0.476205 0.0974263
0.525498 0.439279 0.0800816
-0.501804 0.42829 0.066367
0.4467 0.530398 0.12525
0.430682 -0.494637 0.0978998
0.496286 0.412624 0.114365
-0.527815 0.429896 0.0744564
0.421558 0.139825 0.47057
0.393942 -0.507077 0.0722971
0.487336 0.459001 0.107227
-0.529827 0.436041 0.08859
0.433403 0.545044 0.141497
0.417157 -0.482716 0.121608
0.496893 0.427363 0.13435
0.424436 0.196585 0.478521
0.416929 0.122839 -0.509784
0.452307 0.504825 0.13791
-0.492868 0.4095 0.107044
0.40604 0.48933 0.106646
0.406428 -0.507237 0.155019
-0.530857 0.442212 0.115206
0.44069 -0.514741 0.162747
0.440976 0.189833 0.5057
0.426763 0.471065 0.139954
-0.525364 0.439166 0.152787
0.443505 0.186066 0.471611
0.435991 0.150492 -0.499873
0.473846 0.444304 0.175613
-0.503988 0.41396 0.17981
0.429896 0.186544 0.500261
0.379214 0.501426 0.185471
0.450791 -0.512033 0.161203
0.50094 0.425895 0.186636
-0.523807 0.423195 0.185724
0.405442 0.195725 0.495364
0.440665 -0.460398 0.181293
0.492031 0.410257 0.236315
-0.506165 0.429763 0.1666
0.456085 0.20647 0.525583
0.42831 0.220403 -0.531296
0.43233 0.493939 0.196273
0.408915 -0.502125 0.164227
0.494746 0.430715 0.169785
-0.497961 0.471791 0.205713
0.468459 0.243075 -0.517998
0.437308 0.497904 0.206381
0.529236 0.453722 0.220113
-0.488209 0.477524 0.200087
0.413046 0.239156 -0.529215
0.42038 0.508898 0.205281
0.41115 -0.506187 0.222291
0.498865 0.447539 0.253058
-0.454446 0.430393 0.220464
0.414902 0.204347 0.517048
0.450855 0.496938 0.233191
0.425096 -0.498223 0.248744
0.468983 0.427376 0.283594
-0.52436 0.461956 0.227689
0.451317 0.242015 0.497434
0.447156 0.217597 -0.49347
0.471758 0.506137 0.261153
0.427503 -0.492989 0.242677
-0.529175 0.449762 0.229354
0.383766 0.243289 0.518436
0.438351 0.246557 -0.528787
0.414642 0.514941 0.22224
0.435676 -0.479023 0.213976
0.493513 0.39182 0.231341
0.442982 0.269079 -0.510388
0.400395 -0.535868 0.28654
-0.475166 0.422756 0.235297
0.444351 0.257116 0.503271
0.427277 0.27054 -0.472022
0.395315 0.499522 0.236842
0.517152 0.424814 0.254109
0.402845 0.280803 0.533113
0.410299 0.266267 -0.470994
0.394282 0.486166 0.240121
0.399433 -0.541539 0.266688
0.46732 0.439406 0.258054
0.449995 0.298997 0.467521
0.44782 0.302839 -0.501673
0.454376 0.508199 0.287565
0.441619 -0.493625 0.288756
-0.488065 0.406825 0.293749
0.423547 0.500005 0.306719
-0.49809 0.462733 0.281961
0.422322 0.288608 0.493194
0.43961 0.309903 -0.45074
0.431283 0.500826 0.288714
0.393185 -0.518799 0.308845
-0.518301 0.426422 0.321679
0.420899 0.294689 0.469673
0.467952 0.301677 -0.488154
0.452655 0.51153 0.351723
0.402373 -0.510387 0.312657
0.446347 0.432016 0.306702
-0.505753 0.410424 0.282133
0.427906 0.311433 0.48986
0.442319 0.496491 0.326143
0.497329 0.445201 0.314895
-0.486922 0.42842 0.342429
0.410516 0.38326 0.493593
0.408164 0.355157 -0.492681
0.401192 0.486794 0.349416
0.452479 -0.510266 0.342797
-0.505551 0.454606 0.319334
0.42898 0.341679 0.500365
0.434422 0.31565 -0.514202
0.400649 0.465625 0.359008
0.4432 -0.472375 0.335724
0.508631 0.420809 0.311731
-0.486427 0.445195 0.336536
0.44856 0.354532 0.507588
0.397738 0.322889 -0.501254
0.407174 0.471666 0.359588
0.43185 -0.483751 0.37611
0.512937 0.424539 0.333446
-0.499502 0.419178 0.360804
0.409647 0.377514 0.483254
0.4384 0.363047 -0.478846
0.443251 0.535354 0.356438
0.425804 -0.520664 0.354659
0.513281 0.422446 0.38824
-0.492629 0.436006 0.349332
0.410507 0.361838 0.495622
0.416034 0.393882 -0.453011
0.394125 -0.498247 0.390513
0.463271 0.423284 0.409245
-0.493272 0.441791 0.363769
0.426699 0.38593 -0.502569
0.445497 0.522969 0.411874
0.422761 -0.476064 0.375009
-0.503451 0.407252 0.36968
0.437602 0.388728 0.482116
0.435953 0.399311 -0.503554
0.428068 0.52117 0.396675
0.434354 -0.479119 0.398386
0.530937 0.420265 0.420468
-0.524862 0.434657 0.380102
0.421969 0.404755 0.474589
0.448632 0.369615 -0.486671
0.414853 0.502879 0.424254
0.519579 0.460024 0.411962
-0.498113 0.423392 0.397568
0.422379 0.43901 0.484848
0.429005 0.435538 -0.476468
0.403961 0.523793 0.379588
0.404697 -0.507671 0.402479
-0.503111 0.442187 0.452995
0.410035 0.432902 0.491735
0.431265 0.478276 -0.450701
0.42808 0.511302 0.423174
0.4306 -0.505905 0.397135
0.497169 0.456919 0.402058
-0.499292 0.388014 0.429473
0.417067 0.44077 0.498748
0.409646 0.456296 -0.517561
0.418446 0.489146 0.417689
0.419913 -0.494471 0.433035
0.468266 0.458116 0.462732
-0.546576 0.412087 0.443405
0.402333 0.459641 0.522598
0.468856 0.468144 -0.527321
0.418694 0.470028 0.458309
0.450208 -0.51605 0.48757
0.527212 0.417852 0.446435
-0.514727 0.395647 0.453484
0.435188 0.44141 0.551114
0.452947 0.435652 -0.48551
0.43779 0.500691 0.451418
0.42767 -0.46447 0.485534
0.506625 0.437961 0.480195
-0.487662 0.420712 0.469665
0.434863 0.476306 0.504756
0.436048 0.464144 -0.482192
0.437154 0.48322 0.453106
0.445229 -0.49541 0.483369
0.534908 0.407851 0.426541
-0.491998 0.413655 0.506614
0.415953 0.458824 0.525339
0.421926 0.507132 -0.482284
0.437102 0.493737 0.468585
0.410951 -0.499243 0.462622
0.514425 0.411502 0.484846
-0.467734 0.424681 0.461079
0.472571 0.496531 0.537741
0.442606 0.494429 -0.473789
0.425133 0.482715 0.494064
0.415502 -0.482602 0.499345
0.510218 0.44524 0.449055
-0.471725 0.435886 0.458719
0.431941 0.504334 0.476142
0.425181 0.51257 -0.5024
0.431308 0.470862 0.496622
0.413681 -0.508717 0.481592
0.496309 0.440524 0.490894
-0.50494 0.436519 0.473871
0.446804 -0.518871 0.55423
0.453278 -0.531445 -0.51638
0.442513 0.509264 -0.492436
0.463241 -0.514431 -0.53718
0.516075 0.400617 -0.515081
-0.518827 0.445401 -0.537138
0.449854 -0.503393 0.478328
0.410019 -0.499585 -0.525631
0.448069 0.518137 -0.461252
0.426054 -0.491953 -0.511189
0.494051 0.42759 -0.48798
-0.516013 0.457851 -0.454611
0.43154 -0.466554 0.484362
0.452456 -0.446842 -0.506243
0.449288 0.486554 -0.470669
0.459887 -0.526826 -0.497917
0.511553 0.449854 -0.488784
-0.503812 0.404357 -0.472401
0.431085 -0.471727 0.501931
0.436104 -0.484806 -0.461321
0.438597 0.48967 -0.486871
0.445165 -0.496442 -0.489091
0.484518 0.427053 -0.45945
-0.526199 0.442261 -0.469336
0.441605 -0.491678 0.544703
0.454221 -0.450925 -0.519731
0.418304 0.490745 -0.450072
0.43191 -0.505817 -0.454583
0.518896 0.442785 -0.482472
-0.505004 0.458832 -0.445577
0.450853 -0.4624 0.524458
0.434158 -0.422157 -0.510833
0.417368 0.507003 -0.462261
0.412879 -0.462053 -0.45156
0.476006 0.435521 -0.472229
-0.521391 0.460605 -0.513752
0.463718 -0.452158 0.499557
0.457712 -0.45691 -0.496439
0.444685 0.510969 -0.424464
0.410538 -0.526737 -0.464013
0.498911 0.448494 -0.422832
-0.49457 0.448037 -0.430259
0.463514 -0.451155 0.524461
0.42 0.492874 -0.425678
0.501483 0.405906 -0.426271
-0.487764 0.431403 -0.442477
0.447672 -0.442914 0.504307
0.507064 0.521116 -0.422117
0.407064 -0.516186 -0.402193
0.495101 0.48765 -0.449945
-0.478375 0.42759 -0.386269
0.439169 -0.436464 0.505571
0.447791 -0.426747 -0.516511
0.420721 -0.503258 -0.406106
0.49992 0.421587 -0.406524
-0.494438 0.427192 -0.407119
0.442361 -0.409542 0.480345
0.478691 -0.3924 -0.488897
0.434755 0.500133 -0.376411
0.424398 -0.501523 -0.393851
0.493484 0.443278 -0.405932
-0.511506 0.458732 -0.374423
0.450748 -0.377704 0.544713
0.434244 -0.382971 -0.519442
0.413227 0.517511 -0.377778
0.4064 -0.516039 -0.363946
0.50346 0.450077 -0.417409
-0.509163 0.45621 -0.382409
0.43844 -0.394693 0.493476
0.429648 -0.39338 -0.483962
0.431136 0.492237 -0.431149
0.421806 -0.517143 -0.387076
0.498405 0.426136 -0.39163
-0.49454 0.458682 -0.371783
0.429259 -0.382302 0.475832
0.437913 -0.363156 -0.469432
0.454845 0.519373 -0.360317
0.421908 -0.484108 -0.342836
0.489612 0.420707 -0.397942
-0.488905 0.446261 -0.40565
0.449217 -0.382106 0.497116
0.45898 0.51747 -0.341833
0.461002 -0.554258 -0.375562
-0.522669 0.427791 -0.384456
0.440409 -0.384684 0.499145
0.444207 -0.333289 -0.505487
0.445188 0.469697 -0.377506
0.468514 -0.506866 -0.387303
0.513359 0.434115 -0.340072
-0.479872 0.449306 -0.314984
0.425015 -0.336658 0.496077
0.448904 -0.32747 -0.501645
0.459235 0.50719 -0.322496
0.443803 -0.484826 -0.354952
0.499581 0.410172 -0.329663
-0.487063 0.441271 -0.323797
0.459459 -0.345518 0.466049
0.443666 -0.304977 -0.506475
0.416522 0.523909 -0.312683
0.445747 -0.486382 -0.320099
0.499063 0.434516 -0.324757
-0.518778 0.435569 -0.345521
0.449707 -0.318171 0.488117
0.472054 -0.307094 -0.480306
0.43327 0.513548 -0.321534
0.435555 -0.477947 -0.294417
0.518815 0.418834 -0.321599
0.482715 -0.303341 0.494405
0.426528 -0.301635 -0.506493
0.425224 0.532946 -0.297914
0.463474 -0.466851 -0.324266
0.482123 0.441377 -0.323456
-0.539342 0.428029 -0.297938
0.426787 -0.274759 -0.482959
0.451183 0.505189 -0.301002
0.442718 -0.482851 -0.267289
-0.498182 0.451905 -0.281736
0.443735 -0.294699 0.500901
0.415869 0.513322 -0.302354
0.460232 -0.526624 -0.29303
0.504469 0.463997 -0.282339
-0.511256 0.451971 -0.262598
0.469983 -0.289264 -0.503254
0.455738 0.478862 -0.260957
0.438301 -0.508965 -0.303827
0.508044 0.441641 -0.261015
0.425031 -0.27548 0.519329
0.442946 -0.262154 -0.491414
0.429777 0.512027 -0.275281
0.444357 -0.499269 -0.231762
0.489207 0.488301 -0.282814
-0.503623 0.467064 -0.242998
0.416772 -0.283779 0.507111
0.438008 -0.223176 -0.533408
0.438794 0.51344 -0.260028
0.456051 -0.485712 -0.262555
0.45091 -0.269849 0.500987
0.430937 -0.256796 -0.488477
0.444588 0.493959 -0.235284
0.428272 -0.504732 -0.249278
0.511342 0.439424 -0.255923
-0.49512 0.448618 -0.239198
0.436964 -0.207957 0.51372
0.440073 -0.261713 -0.494614
0.456955 0.517578 -0.235762
-0.496068 0.435772 -0.244135
0.47921 -0.244537 0.536262
0.430664 0.496442 -0.230425
0.529098 0.433314 -0.244683
-0.49585 0.454617 -0.253898
0.433695 -0.232839 0.488339
0.446659 -0.215592 -0.500672
0.3979 0.514368 -0.218332
0.45986 0.469535 -0.198641
-0.517046 0.457055 -0.228892
0.476461 -0.216136 -0.516687
0.510102 0.405639 -0.216606
-0.50833 0.448296 -0.202313
0.463602 -0.196441 0.509438
0.416918 -0.215144 -0.51497
0.494056 0.455963 -0.158495
-0.503501 0.429595 -0.183127
0.416294 -0.18652 0.499908
0.44414 -0.149458 -0.503624
0.428683 0.48493 -0.14615
0.456138 -0.517927 -0.195209
0.516609 0.423952 -0.191747
-0.502757 0.411713 -0.154969
0.416285 -0.219552 0.468258
0.442504 -0.18872 -0.485675
0.456294 -0.490865 -0.209804
0.503827 0.438066 -0.191511
-0.462638 0.437739 -0.202371
0.462446 -0.168359 0.481766
0.448648 -0.523058 -0.171677
-0.513442 0.438605 -0.167751
0.414176 0.489344 -0.194257
0.391194 -0.513811 -0.158404
-0.479932 0.41806 -0.153768
0.421449 -0.187736 0.492132
0.438057 -0.127874 -0.478479
0.422252 0.474346 -0.174625
0.479389 0.442607 -0.142027
-0.474463 0.457052 -0.152516
0.447118 -0.136731 0.484432
0.447112 -0.130195 -0.47024
0.461459 0.484737 -0.144909
0.464444 -0.49862 -0.119165
-0.497251 0.452054 -0.143192
0.474799 -0.123012 0.474486
0.426839 -0.1753 -0.482545
0.443397 0.495622 -0.13202
0.403443 -0.493367 -0.119694
0.531262 0.453194 -0.105738
-0.530073 0.442263 -0.135673
0.466451 -0.136742 -0.501119
0.421981 0.49531 -0.113447
0.434393 -0.520671 -0.110095
0.50681 0.434926 -0.133552
0.443875 -0.114816 0.518598
0.449616 -0.485102 -0.106178
0.511889 0.432858 -0.075283
-0.496889 0.434344 -0.115637
0.453433 -0.0912707 -0.486804
0.43109 0.48377 -0.104626
0.433236 -0.534927 -0.0979885
0.421118 0.508443 -0.0491407
0.439176 -0.480258 -0.0743741
0.535557 0.404176 -0.11986
-0.504959 0.431119 -0.0701637
0.434953 0.494936 -0.0584425
0.406555 -0.506609 -0.0975867
0.483913 0.4454 -0.0790087
0.458972 -0.0493249 0.511754
0.447904 0.497308 -0.0299738
-0.487889 0.460613 -0.0584644
0.450627 -0.0378423 -0.473362
0.449979 -0.498226 -0.0599326
0.553398 0.45299 -0.0272124
0.463952 -0.0157636 0.516266
0.462059 -0.0117702 -0.500481
0.437148 0.49362 -0.0491672
0.443561 -0.451304 -0.0676124
0.488602 0.460149 -0.00403041
-0.501561 0.431454 -0.0502521
0.462622 -0.031111 0.476229
0.442428 0.49502 -0.00734244
0.456398 -0.502208 -0.0482202
0.429875 -0.00724557 0.476929
0.434098 -0.500884 -0.0233659
0.474096 0.450691 -0.0312972
0.417476 -0.0220217 0.501166
0.413518 -0.0204804 -0.503663
0.476204 -0.535717 -0.0301967
0.501225 0.443452 -0.0175111
0.450899 -0.040293 -0.505839
0.471969 0.425508 0.012423
0.42506 0.0642043 -0.545637
0.429102 -0.543773 0.0248797
-0.46207 0.431575 0.0192735
0.419758 0.0131979 0.46273
0.450319 0.52695 -0.000915841
0.447512 -0.457261 0.0136385
0.521756 0.444057 0.0276354
-0.511105 0.471505 0.0133688
0.445724 0.0174829 -0.511291
0.414902 0.486588 0.00212014
0.426934 -0.522841 0.0300246
0.483765 0.435681 0.0374866
-0.497041 0.419495 0.042529
0.413718 0.0587662 -0.508856
0.436873 0.525042 0.0145654
0.440784 -0.474236 0.01325
0.495304 0.454898 0.0656403
-0.467296 0.425064 -0.00549896
0.413997 0.0511283 -0.523305
0.440667 -0.478592 0.0307318
0.505064 0.463956 0.0317204
-0.468587 0.478204 0.109547
0.489807 0.0686962 -0.488618
0.443827 0.460039 0.0627515
0.458831 -0.511421 0.063926
-0.441557 0.44673 0.0496477
0.432622 0.0675346 0.509352
0.418834 0.0707689 -0.504088
0.450541 -0.516112 0.0756044
0.477667 0.404248 0.0614361
-0.490066 0.416127 0.0793613
0.458734 0.09148 0.501445
0.435273 0.518117 0.081908
-0.534386 0.440757 0.0859429
0.43842 0.0784592 -0.507622
0.485746 0.44247 0.122309
0.442148 0.108311 -0.476809
0.450901 0.514783 0.0688773
0.438918 -0.481925 0.0996779
0.400547 0.0736714 0.539781
0.451242 0.127989 -0.51377
-0.483975 0.468723 0.142362
0.42318 0.109146 -0.536602
0.456182 -0.513129 0.0966536
0.522683 0.437407 0.0806364
0.455631 0.130598 0.488055
0.435923 0.11326 -0.499761
0.385905 -0.49685 0.147653
0.446898 0.119233 0.512388
0.417178 0.146999 -0.475537
0.408229 0.487616 0.115199
0.391222 -0.504514 0.108164
0.498978 0.449067 0.169613
0.424342 0.16921 0.462254
0.437481 0.13021 -0.52291
-0.520483 0.429356 0.125044
0.444889 0.178064 -0.506075
-0.500918 0.447221 0.167996
0.433156 0.145833 0.49186
0.430068 0.158826 -0.522732
0.446208 0.482788 0.169111
0.455604 -0.488862 0.155821
0.51384 0.419452 0.180128
0.424025 0.203212 -0.508609
0.425258 0.536788 0.185983
0.492273 0.442387 0.150734
-0.476402 0.426904 0.160435
0.46546 0.21769 0.482969
0.40301 0.480436 0.163022
0.449967 -0.50349 0.213996
0.473163 0.424208 0.186523
-0.527394 0.451947 0.1635
0.430017 0.193619 0.513412
0.440201 -0.462029 0.211698
0.487966 0.444029 0.191364
-0.511303 0.437786 0.205644
0.420358 0.206349 0.518353
0.449621 0.187484 -0.527641
0.465572 0.520686 0.211356
0.422401 -0.517151 0.219701
-0.469124 0.44544 0.166821
0.431254 0.216401 0.534092
0.428958 0.207182 -0.462073
0.436273 0.508098 0.233461
0.440838 -0.482823 0.231314
0.491142 0.448848 0.255225
-0.451962 0.441099 0.272395
0.405062 0.229045 0.506447
0.463806 0.23942 -0.484406
0.433803 0.488806 0.224564
0.454646 -0.534845 0.230772
0.511737 0.465371 0.238337
-0.49494 0.440663 0.215826
0.443621 0.217093 0.471436
0.481646 0.222103 -0.497262
0.457764 0.497429 0.284936
0.486346 -0.510381 0.20445
0.482426 0.405596 0.231296
-0.500596 0.440046 0.262466
0.453596 0.244314 -0.491094
0.441266 -0.471727 0.234902
-0.502611 0.463477 0.23795
0.447321 0.270753 0.511018
0.425399 0.246802 -0.509593
0.481004 0.499523 0.266855
0.44738 -0.486661 0.279538
0.472177 0.432283 0.273203
-0.486841 0.41457 0.272826
0.401823 0.294011 -0.491122
0.475473 0.49308 0.241411
0.451289 -0.49421 0.286425
0.514049 0.449402 0.251436
0.41937 0.245955 0.521521
0.443056 0.281878 -0.496992
0.43813 0.482049 0.266218
0.44225 -0.480162 0.247769
0.472602 0.435492 0.255384
-0.512858 0.425385 0.253481
0.423219 0.316834 0.519736
0.459266 0.282879 -0.486267
0.469821 0.524115 0.277802
0.446136 -0.498459 0.270766
0.491215 0.410496 0.28022
0.42902 0.267598 0.507151
0.454434 0.272587 -0.489687
0.439838 0.47807 0.291849
0.430144 -0.546021 0.270254
0.491659 0.447674 0.275754
0.458407 0.324417 0.504345
0.413766 0.324087 -0.520305
0.437415 0.488644 0.286817
0.406425 -0.469572 0.307802
0.491427 0.44115 0.283149
-0.471572 0.422737 0.300129
0.446808 0.295322 0.49176
0.4136 0.335369 -0.499557
0.474178 -0.526201 0.28367
0.502555 0.451096 0.329783
-0.503665 0.427643 0.341304
0.373841 0.354305 0.483603
0.464991 0.320566 -0.534895
0.436336 -0.504428 0.326929
0.509576 0.438058 0.314293
-0.500077 0.457292 0.333255
0.446172 0.346018 -0.511241
0.436511 0.491233 0.319556
0.492515 0.442162 0.355195
-0.474224 0.464397 0.314888
0.451809 0.395781 0.493974
0.446511 0.326995 -0.533829
0.438427 0.513849 0.361852
0.443792 -0.526153 0.376
0.485479 0.443133 0.413874
-0.481685 0.453505 0.323343
0.440744 0.363113 0.489569
0.451722 0.352462 -0.50898
0.423328 0.477411 0.339483
0.420479 -0.473522 0.354583
0.475014 0.469446 0.343568
-0.496416 0.440678 0.330488
0.419638 0.336893 0.50353
0.443068 0.348705 -0.482464
0.479066 0.512027 0.359065
0.436074 -0.523553 0.375667
0.499386 0.446686 0.388208
-0.473468 0.463037 0.38283
0.433452 0.35334 0.509424
0.494058 0.368581 -0.514341
0.443463 0.519282 0.386188
0.461409 -0.505025 0.395266
0.485499 0.46577 0.386681
-0.54983 0.419865 0.363946
0.463876 0.391085 0.518912
0.427248 0.424238 -0.491588
0.446892 0.531559 0.393386
0.440609 -0.477082 0.353578
0.500618 0.421166 0.418592
-0.495262 0.413753 0.386585
0.432486 0.409147 -0.545366
0.443041 0.53552 0.396323
0.46385 -0.46761 0.392493
0.460445 0.448772 0.403571
-0.479696 0.440736 0.405787
0.451378 0.372579 0.469116
0.422075 0.389682 -0.506087
0.452583 0.555471 0.412214
0.408057 -0.501427 0.398083
0.515243 0.439453 0.434003
-0.511792 0.466414 0.400811
0.456347 0.446329 0.518801
0.458374 0.437795 -0.5166
0.422007 0.487717 0.419847
0.447284 -0.495989 0.411262
0.498949 0.447326 0.404605
-0.52239 0.422328 0.408272
0.428846 0.376447 0.504197
0.439172 0.388968 -0.53673
0.42897 0.503043 0.414549
0.46105 -0.50814 0.377796
0.491331 0.449546 0.425385
0.420483 0.4333 0.480333
0.433636 0.447777 -0.489478
0.461529 0.51871 0.470248
0.437981 -0.515791 0.447064
0.499032 0.425727 0.420808
-0.468566 0.449227 0.47867
0.41788 0.417784 0.495413
0.442502 0.505329 -0.469241
0.468482 0.51767 0.443664
0.478151 -0.483124 0.46251
0.525672 0.422887 0.426078
-0.493897 0.449752 0.438081
0.422738 0.447969 0.473389
0.461201 0.469155 -0.510336
0.455773 0.472771 0.448059
0.424572 -0.512894 0.457005
0.476247 0.472901 0.4429
-0.498535 0.445064 0.449182
0.455911 0.494665 0.466651
0.415554 0.479918 -0.504156
0.436891 0.512105 0.429286
0.390594 -0.5032 0.460332
0.510124 0.44355 0.445041
-0.481902 0.467158 0.467686
0.427305 0.465229 0.494471
0.427081 0.488817 -0.536429
0.46233 0.532878 0.500493
0.417588 -0.509926 0.455548
0.510476 0.441281 0.498466
-0.498651 0.422847 0.47509
0.428077 0.474949 0.502374
0.456522 0.511759 -0.490278
0.452893 0.489089 0.528177
0.407132 -0.479623 0.519647
0.496485 0.440895 0.474698
-0.520639 0.469839 0.480674
0.426892 0.516936 0.518427
0.430256 0.48435 -0.490317
0.433184 0.4995 0.512543
0.450812 -0.503676 0.49399
0.485326 0.438509 0.470397
-0.477273 0.458655 0.489869
0.439418 -0.497816 0.523702
0.460558 -0.502052 -0.510898
0.457483 0.50159 -0.510897
0.460365 -0.485245 -0.492817
0.485732 0.448229 -0.492571
-0.460013 0.458331 -0.512778
0.458624 -0.490927 0.52533
0.442788 -0.499632 -0.505317
0.441621 0.455769 -0.468728
0.451236 -0.495488 -0.489628
0.460703 0.43961 -0.459044
-0.503282 0.472511 -0.476104
0.470074 -0.462678 0.493612
0.414937 -0.505145 -0.47878
0.474264 0.501036 -0.44947
0.479419 -0.519158 -0.488978
0.501457 0.458442 -0.491028
-0.483146 0.475477 -0.496595
0.456354 -0.500457 0.508415
0.478363 -0.494717 -0.523807
0.443742 0.501594 -0.459589
0.482864 -0.51003 -0.443193
0.479285 0.457888 -0.4648
-0.477422 0.445434 -0.490235
0.446856 -0.475025 0.491787
0.444369 -0.452282 -0.489554
0.451664 0.496287 -0.455474
0.447359 -0.505226 -0.477459
0.473414 0.465226 -0.472323
-0.510582 0.46461 -0.48486
0.458016 -0.422243 0.518275
0.46676 -0.495016 -0.487156
0.471439 0.531534 -0.463405
0.424215 -0.501321 -0.483252
0.52259 0.469693 -0.429007
-0.492746 0.457481 -0.438588
0.441062 -0.443436 0.477686
0.44465 -0.417706 -0.512954
0.456922 0.517337 -0.40501
0.45587 -0.538303 -0.452583
0.506906 0.467049 -0.415211
-0.496002 0.443377 -0.417686
0.472039 -0.420495 0.506317
0.459796 -0.430531 -0.485758
0.438885 0.47991 -0.438597
0.472673 -0.499154 -0.429556
0.501796 0.440272 -0.432914
-0.544347 0.472201 -0.400734
0.452308 -0.414342 0.527334
0.440741 -0.399481 -0.514319
0.435361 0.497591 -0.390441
0.448227 -0.484481 -0.438508
0.498549 0.423954 -0.426971
-0.51342 0.491208 -0.407374
0.441192 -0.424747 -0.492084
0.465941 0.467601 -0.389971
0.456271 -0.499267 -0.415905
0.519493 0.507898 -0.427854
-0.518738 0.464315 -0.409086
0.439893 -0.367307 0.473569
0.468868 -0.378332 -0.425018
0.451951 0.489393 -0.42024
0.414158 -0.478023 -0.396155
0.486497 0.41358 -0.38294
0.450873 -0.390258 0.518191
0.450677 -0.390289 -0.49538
0.469874 0.490789 -0.392513
0.44298 -0.48998 -0.395456
0.472281 0.471868 -0.398704
-0.546448 0.465953 -0.387432
0.411954 -0.365547 0.48461
0.491673 -0.379168 -0.493985
0.480245 0.48707 -0.37746
0.474511 -0.450036 -0.412506
0.503174 0.432727 -0.338652
-0.478922 0.441854 -0.392284
0.454672 -0.384345 0.488782
0.476181 -0.368207 -0.53066
0.464898 0.520081 -0.371815
0.443884 -0.531446 -0.389674
0.51693 0.481069 -0.354837
-0.532638 0.424228 -0.346323
0.429088 -0.375693 -0.492684
0.463285 0.507451 -0.353153
0.460941 -0.483607 -0.358232
0.488994 0.443905 -0.375757
-0.47727 0.466205 -0.345863
0.46101 -0.326977 -0.528182
0.505248 0.52737 -0.367264
0.510375 -0.510622 -0.323701
0.481148 0.466228 -0.370301
-0.469615 0.463514 -0.327844
0.432418 -0.314334 0.507617
0.484666 -0.36827 -0.48332
0.458025 0.486428 -0.335672
0.405863 -0.492829 -0.369535
0.487386 0.455772 -0.337916
-0.482976 0.459053 -0.373433
0.456508 -0.363376 0.534335
0.481919 -0.278124 -0.442765
0.492411 0.498355 -0.294633
0.445931 -0.486947 -0.363221
0.499317 0.444762 -0.314366
-0.502663 0.420461 -0.347914
0.464558 -0.30944 0.505557
0.470638 -0.310093 -0.513151
0.427383 0.501901 -0.322088
0.429415 -0.487791 -0.305254
0.485035 0.458436 -0.293357
0.451907 0.534298 -0.326536
0.465391 -0.490858 -0.274352
0.517071 0.454218 -0.317287
-0.493934 0.407455 -0.30569
0.488267 -0.270992 0.509699
0.446878 -0.268642 -0.498731
0.45869 -0.525691 -0.299819
0.502289 0.460922 -0.34519
-0.492843 0.443738 -0.275455
0.480311 -0.288597 0.522141
0.422604 0.527495 -0.267009
0.478067 -0.494498 -0.313932
0.526428 0.455945 -0.284942
-0.529085 0.474925 -0.30712
0.418614 -0.285244 0.4824
0.463508 -0.287657 -0.541698
0.443476 0.508034 -0.264067
0.455314 -0.495252 -0.256346
0.487863 0.433229 -0.28957
0.45827 -0.261467 0.501445
0.445973 -0.232798 -0.500304
0.455237 0.529577 -0.239955
0.485679 0.431794 -0.300077
-0.500519 0.443683 -0.327309
0.452001 -0.293573 0.514851
0.444514 -0.271493 -0.519252
0.463508 0.54842 -0.248291
0.486823 0.469576 -0.278223
-0.509665 0.455885 -0.269194
0.458162 -0.234064 0.523359
0.457661 -0.269153 -0.474042
0.463171 -0.504904 -0.250717
-0.483221 0.460303 -0.249675
0.476304 -0.232876 0.481534
0.447263 -0.222061 -0.517647
0.448274 0.508563 -0.214618
0.426886 -0.508712 -0.234916
0.490529 0.467374 -0.22651
0.429129 0.484921 -0.234684
0.455589 -0.496731 -0.245854
0.485465 0.481056 -0.213187
-0.508538 0.47335 -0.244861
0.438151 -0.212103 0.471438
0.452109 0.462095 -0.242817
0.475827 -0.508515 -0.174476
0.501661 0.434338 -0.214706
-0.489636 0.478146 -0.20924
0.444742 -0.218069 0.484011
0.49236 0.52598 -0.217901
0.417196 -0.504621 -0.225131
0.518029 0.423873 -0.180435
0.44186 -0.23604 0.478052
0.502056 0.51175 -0.220022
0.435999 -0.507877 -0.189311
0.495444 0.444773 -0.169383
-0.518105 0.458804 -0.200429
0.452173 -0.212211 0.487449
0.492923 -0.185475 -0.508811
0.456845 0.520288 -0.152129
0.439781 -0.493211 -0.173801
0.474174 0.483272 -0.156142
-0.523449 0.444911 -0.189468
0.489845 -0.190203 0.487866
0.46768 -0.178983 -0.48348
0.450055 0.49021 -0.166214
0.501746 0.40723 -0.151828
-0.479556 0.437923 -0.172782
0.458508 -0.175651 0.486262
0.458151 -0.178763 -0.495766
0.442744 0.522989 -0.141457
0.433737 -0.485737 -0.173066
0.502625 0.477103 -0.145276
0.424623 -0.10954 0.510376
0.465543 -0.135522 -0.508916
0.483762 -0.489431 -0.15555
0.511923 0.465242 -0.166376
-0.52976 0.450731 -0.190532
0.439255 -0.160606 0.508619
0.465378 -0.119426 -0.509497
0.458059 0.462742 -0.179639
0.471893 -0.495155 -0.195871
0.538552 0.439173 -0.112363
-0.489837 0.434406 -0.153563
0.431953 -0.168535 0.511593
0.456801 -0.139019 -0.511161
0.415652 -0.488326 -0.131977
0.499396 0.435955 -0.129939
-0.501222 0.438506 -0.115876
0.434365 -0.137598 0.491985
0.480996 -0.110968 -0.504144
0.428875 0.51609 -0.151786
0.439727 -0.504545 -0.0900681
0.502116 0.452075 -0.15223
0.478438 0.49046 -0.10218
0.462363 -0.511542 -0.130083
0.525777 0.449874 -0.161485
-0.497036 0.438848 -0.112463
0.484835 -0.123872 0.5315
-0.503566 0.432739 -0.113186
0.434246 -0.111334 0.477381
0.456053 -0.527839 -0.0826934
0.54105 0.451144 -0.0386375
-0.516752 0.457347 -0.096428
0.459778 -0.0737216 0.494984
0.448973 0.5126 -0.0863838
0.431506 -0.470323 -0.102289
0.490418 0.47 -0.0895718
-0.513874 0.409846 -0.0743923
0.469785 -0.0814974 -0.521384
0.435752 0.504659 -0.104991
0.458754 -0.497528 -0.0753947
0.513655 0.496575 -0.0624581
-0.521763 0.421699 -0.0812799
0.43502 -0.0556123 0.512446
0.444499 -0.0760951 -0.507574
0.434035 0.466952 -0.0597934
0.537129 0.414967 -0.0493712
-0.480177 0.479652 -0.0276979
0.42568 -0.0413976 0.512902
0.475168 -0.0256051 -0.523927
0.423493 0.512496 -0.00947743
0.429107 -0.541155 -0.0618161
0.455193 0.00981442 -0.49355
-0.492143 0.442666 -0.0790228
0.468565 -0.0368698 0.526665
0.457256 -0.0601811 -0.466987
0.428438 0.513664 -0.0333333
0.459681 -0.490902 -0.0683954
0.493104 0.443884 -0.0339213
-0.487234 0.450319 -0.042397
0.462969 -0.00259334 0.48264
0.492934 -0.0422114 -0.504492
0.469602 -0.498028 -0.038071
0.50573 0.474985 -0.0104682
0.401952 -0.012823 0.51027
0.439391 -0.00183874 -0.487753
0.440988 0.517943 0.00679591
0.521517 0.457982 -0.0205767
-0.461553 0.46916 -0.0291134
0.457716 0.00279912 0.494093
0.455231 0.0278839 -0.508162
-0.522809 0.409108 0.00736389
0.447159 -0.00971256 -0.517333
0.438922 0.51443 0.0136088
0.406762 -0.51339 0.0242237
0.490677 0.422439 -0.019413
-0.519012 0.437903 0.0154742
0.450544 0.0248542 0.501391
0.425566 0.0317293 -0.498716
0.422776 0.551682 -0.0167
0.46877 -0.4956 0.00568695
0.503233 0.430695 0.022508
0.422627 0.00285284 0.488919
0.444666 0.452903 0.0106607
0.424993 -0.50245 0.00426753
-0.507818 0.4391 -0.00312177
0.429801 0.0559261 0.483857
0.455984 0.499766 0.0450066
0.424911 -0.496298 0.0395584
-0.517905 0.42999 0.0428086
0.447959 0.0408806 0.514346
0.456765 0.0375016 -0.501112
0.44062 0.4928 0.100708
0.484091 0.414435 0.0403712
-0.532969 0.47303 0.0232497
0.474565 0.0125222 0.496944
0.433771 0.0455542 -0.477446
0.433095 0.543619 0.0377093
0.486672 -0.466583 0.0496222
0.470006 0.470437 0.0886499
0.467767 0.0534339 0.485231
0.410971 0.0481435 -0.479455
0.47004 0.526286 0.0528309
0.45517 -0.533467 0.0420765
0.431035 0.118555 0.478648
0.42658 0.494871 0.129113
0.507883 0.472986 0.0822884
-0.5013 0.469201 0.0429986
0.438018 0.103864 0.487357
0.405652 0.0964253 -0.479097
0.443456 0.521361 0.0725906
0.451694 -0.514126 0.075873
0.491217 0.404027 0.0930748
-0.53995 0.455226 0.105477
0.444603 0.0808177 0.496622
0.452568 0.141771 -0.488431
0.467895 0.509841 0.0868116
0.446936 -0.514786 0.0498811
0.497053 0.486219 0.090466
-0.49028 0.454241 0.119046
0.454588 0.146584 -0.490829
0.463175 0.484673 0.0956264
0.460152 -0.523303 0.106715
0.541431 0.43429 0.10428
-0.466253 0.476861 0.0862189
0.460321 0.464065 0.118567
0.511935 0.467855 0.09242
-0.480056 0.460083 0.10648
0.456489 0.117029 0.526818
0.456513 0.118111 -0.494652
0.432754 0.496636 0.138715
0.427792 -0.56217 0.0988176
0.52914 0.423783 0.126658
0.459288 0.125184 -0.504772
0.420432 0.469879 0.095253
0.47867 -0.514553 0.154423
0.508194 0.472041 0.135108
-0.532718 0.425525 0.150688
0.426719 0.182606 0.4909
0.455747 0.14104 -0.511037
0.454348 0.50276 0.16748
0.444596 -0.50486 0.125316
-0.489168 0.454513 0.146391
0.444221 0.159675 0.511767
0.472853 0.151742 -0.494914
0.458599 0.463633 0.165594
0.468696 0.439292 0.166974
-0.479742 0.45869 0.176647
0.404 0.177742 -0.492907
0.486608 0.520692 0.132338
0.453171 -0.511764 0.193664
0.472753 0.472514 0.159344
0.474843 0.166452 0.515199
0.418013 0.173335 -0.490792
0.474693 0.506982 0.187453
0.459933 0.179287 0.501682
0.468974 0.146572 -0.491818
0.450849 0.529263 0.173226
0.435313 -0.517025 0.180827
-0.506258 0.479405 0.177814
0.484211 0.212387 -0.519666
0.480088 -0.508398 0.195411
0.500183 0.413687 0.198882
-0.526801 0.420287 0.209245
0.440244 0.194837 0.502837
0.458868 0.216159 -0.514802
0.509633 0.443417 0.195141
0.467661 0.16801 0.500624
0.425768 0.254166 -0.510571
0.458236 -0.487345 0.229769
0.480333 0.436592 0.201922
-0.516094 0.429787 0.238803
0.462423 0.209404 -0.47753
0.456978 0.462749 0.209632
0.493004 0.428976 0.226894
-0.484019 0.417511 0.211117
0.442811 0.24457 0.487636
0.430631 0.219441 -0.470685
0.463401 0.491405 0.224812
0.438242 -0.484902 0.225155
0.510906 0.451517 0.208509
-0.514903 0.419376 0.229221
0.457879 0.23557 0.509851
0.438081 0.483773 0.249404
0.423161 -0.553698 0.250717
0.498724 0.4117 0.243442
-0.509543 0.451616 0.209982
0.4237 0.276085 0.511918
0.458521 0.275368 -0.51535
0.445313 0.486797 0.263257
0.429941 -0.467368 0.256072
0.506611 0.468155 0.223031
-0.487717 0.461724 0.224274
0.452219 0.263758 0.44852
0.43255 0.494683 0.256191
0.518324 0.437313 0.299556
-0.485906 0.456184 0.269674
0.429664 0.249637 0.46326
0.481119 0.276576 -0.512361
0.468792 0.48524 0.287436
0.444334 -0.524859 0.269929
0.490591 0.464338 0.254477
-0.519436 0.48939 0.287603
0.480033 0.299324 0.507515
0.43473 0.292589 -0.510142
0.460873 0.47647 0.302072
0.430286 -0.495277 0.27138
-0.51407 0.45681 0.330356
0.460153 0.308499 0.499903
0.455439 0.276963 -0.55085
0.448652 0.485949 0.306329
0.44504 -0.489946 0.313715
-0.483475 0.439405 0.286598
0.441086 0.299616 -0.491919
0.463821 0.499525 0.299977
0.435096 -0.497739 0.269931
0.443528 0.315778 0.444839
0.417342 0.316806 -0.473101
0.455349 0.495493 0.356186
0.462203 0.429684 0.313825
0.457201 0.313651 0.518553
0.469311 0.307697 -0.507596
0.459135 0.500862 0.294184
0.452639 -0.487711 0.353617
0.507563 0.454077 0.35195
-0.489283 0.462913 0.361536
0.460786 0.327152 0.49566
0.418421 0.357171 -0.523311
0.452214 0.507402 0.339643
0.449755 -0.528519 0.315259
0.521717 0.452081 0.357041
