ply
format ascii 1.0
comment sampling resolution: 0.01
comment noise level: 0.02
comment Created by Open3D
element vertex 1665
property double x
property double y
property double z
end_header
-0.459477 0.491319 0.193125
-0.510875 -0.475445 0.184215
-0.437591 0.16406 0.5011
-0.478298 0.49099 0.141706
-0.446097 -0.470817 0.197759
0.519661 -0.440632 0.206333
-0.507783 -0.448858 0.177067
-0.466078 0.190845 -0.469471
-0.465331 0.493564 0.189876
-0.475314 -0.482851 0.192844
0.528004 -0.47108 0.220929
-0.464971 -0.446118 0.1964
-0.48702 0.193134 -0.498815
-0.469757 0.486676 0.2122
-0.491423 -0.472006 0.175491
-0.467732 0.219362 0.529186
-0.480717 0.48438 0.260601
0.531545 -0.480529 0.236925
-0.486923 -0.447466 0.178354
-0.478881 0.213898 0.519771
-0.472386 0.239554 -0.481315
-0.463074 -0.52852 0.197605
-0.532082 -0.459036 0.231722
-0.46349 0.223344 0.518134
-0.467815 0.26917 -0.519928
-0.442354 0.494716 0.262334
-0.468203 -0.534053 0.233114
0.504663 -0.477987 0.258439
-0.519234 -0.467385 0.240713
-0.467594 0.27647 0.524653
-0.442608 0.257397 -0.487345
-0.519871 -0.435185 0.271442
-0.498616 0.29492 0.468846
-0.478744 -0.513497 0.263591
0.516687 -0.462722 0.239567
-0.490262 -0.437103 0.284883
-0.454486 0.280644 0.494398
-0.436172 -0.532347 0.263214
-0.413396 0.2655 0.48996
-0.438726 0.263036 -0.521693
-0.451525 0.513176 0.318056
0.492688 -0.456898 0.25748
-0.499341 -0.448725 0.301189
-0.468012 0.289147 0.477257
-0.461176 0.2737 -0.517798
-0.463664 0.483494 0.291744
-0.493415 -0.49706 0.275652
0.495091 -0.492808 0.280908
-0.50801 -0.469989 0.271905
-0.513368 0.296355 0.516028
-0.475648 0.311866 -0.489689
-0.452344 0.473578 0.305152
-0.462806 -0.476028 0.261061
0.522735 -0.471232 0.295012
-0.479436 -0.475271 0.317945
-0.40804 0.303175 0.484984
-0.43132 0.522937 0.31065
-0.460687 -0.513127 0.339327
0.475525 -0.448127 0.334355
-0.499951 -0.482986 0.342424
-0.439061 0.290527 0.517509
-0.463166 0.291114 -0.484722
-0.528992 -0.496473 0.288628
-0.47853 0.318763 0.491193
-0.453686 0.32281 -0.509493
-0.469951 0.527408 0.336729
-0.468475 -0.503278 0.33645
-0.50716 -0.450879 0.310074
-0.465781 0.35093 0.461929
-0.486921 0.381741 -0.50495
-0.48563 0.517666 0.360903
-0.464551 -0.522819 0.366236
0.474511 -0.448384 0.344951
-0.503201 -0.449112 0.335251
-0.424593 0.34345 -0.510755
-0.464204 0.508411 0.34888
0.526737 -0.479248 0.370982
-0.510163 -0.445443 0.340439
-0.43132 0.344527 0.53455
-0.46367 0.337388 -0.481366
-0.478175 0.456967 0.319202
-0.465055 -0.463324 0.385292
0.461142 -0.494088 0.339001
-0.445506 0.377376 0.514969
-0.49691 0.327836 -0.506693
-0.495633 0.497728 0.34744
-0.466665 -0.520502 0.343745
0.512095 -0.462665 0.382965
-0.464798 -0.470129 0.334864
-0.443288 0.348543 0.503935
-0.426147 0.396645 -0.484823
-0.45137 0.500719 0.377591
-0.471124 -0.472971 0.341202
0.486317 -0.466633 0.38816
-0.468989 -0.450325 0.357844
-0.449067 0.363687 0.520348
-0.464942 0.400454 -0.502286
-0.420555 0.501214 0.361392
-0.482096 -0.493683 0.37048
0.463542 -0.427321 0.397892
-0.539429 -0.488172 0.349552
-0.461248 0.400684 0.478558
-0.464675 0.405799 -0.505173
-0.47081 0.514325 0.375188
-0.47084 -0.502917 0.397292
0.501381 -0.471046 0.416316
-0.494507 -0.453061 0.364744
-0.454484 0.381071 0.494873
-0.469169 0.399793 -0.507571
-0.493011 0.491436 0.380637
-0.463499 -0.51179 0.387057
0.491799 -0.436937 0.417926
-0.497915 -0.483364 0.402435
-0.456547 0.406235 0.489856
-0.469123 0.406912 -0.47423
-0.47038 0.518598 0.430756
-0.45499 -0.525962 0.400775
0.501184 -0.500407 0.384082
-0.519439 -0.443786 0.448478
-0.43646 0.456125 0.480546
-0.472454 0.419902 -0.474765
-0.482158 0.49905 0.390901
-0.436528 -0.500929 0.406154
0.488505 -0.493421 0.442304
-0.501175 -0.466483 0.420043
-0.426709 0.453797 0.457549
-0.475724 0.458305 -0.494642
-0.437285 0.498339 0.43341
-0.487314 -0.551205 0.422242
0.469508 -0.484111 0.435273
-0.509427 -0.443484 0.474706
-0.474506 0.491436 0.524921
-0.443041 0.52756 -0.522886
-0.430873 -0.526293 0.434784
0.499753 -0.457544 0.498752
-0.528127 -0.481537 0.42352
-0.448776 0.440473 -0.46676
-0.440664 0.505373 0.459492
-0.491208 -0.497421 0.453409
0.518235 -0.456774 0.471052
-0.520157 -0.447965 0.456154
-0.431687 0.464057 0.470748
-0.474887 0.461966 -0.477991
-0.475643 0.489793 0.470884
-0.447155 -0.509615 0.439264
0.496088 -0.490775 0.469356
-0.48552 -0.49369 0.469646
-0.454326 0.485041 0.519836
-0.468329 0.507137 -0.492059
-0.484732 0.491444 0.505218
-0.445175 -0.526773 0.498554
0.495633 -0.41987 0.433847
-0.449662 -0.458085 0.469363
-0.431068 0.473814 0.508952
-0.450791 0.483593 -0.492135
-0.45151 -0.509933 0.449579
0.493441 -0.468566 0.477622
-0.510505 -0.457922 0.475831
-0.425763 0.488557 0.481503
-0.452187 0.492914 -0.495607
-0.428544 0.539665 0.460687
-0.440165 -0.500247 0.483137
0.493034 -0.436025 0.521644
-0.495014 -0.444894 0.498499
-0.467326 -0.480146 0.533062
-0.471503 -0.496551 -0.474153
-0.462217 0.506164 -0.49543
-0.440321 -0.531077 -0.513135
0.480693 -0.428248 -0.494339
-0.509293 -0.461651 -0.498504
-0.455913 -0.467 0.485109
-0.447223 -0.496569 -0.533574
-0.473334 0.504568 -0.497873
-0.41746 -0.550189 -0.508157
0.469364 -0.458293 -0.450251
-0.486213 -0.451579 -0.491493
-0.427041 -0.484125 0.488072
-0.481489 -0.495905 -0.498023
-0.448196 0.474185 -0.435317
-0.43567 -0.486603 -0.455897
0.516456 -0.449753 -0.464848
-0.533189 -0.484223 -0.475364
-0.469588 -0.474197 0.515632
-0.438358 -0.511242 -0.505172
-0.456823 0.47833 -0.472804
-0.454768 -0.532577 -0.459677
0.461282 -0.480361 -0.476289
-0.482979 -0.4755 -0.469221
-0.444055 -0.461785 -0.498866
-0.471413 0.520342 -0.456333
-0.402996 -0.490404 -0.484984
0.496793 -0.433006 -0.459612
-0.483273 -0.459272 -0.477677
-0.459004 -0.440597 0.537759
-0.475994 0.521845 -0.436905
-0.432271 -0.516669 -0.489014
0.527804 -0.440895 -0.462537
-0.4993 -0.441158 -0.481824
-0.453422 -0.437404 0.470492
-0.421715 -0.429263 -0.513342
-0.455131 0.477193 -0.456622
-0.441754 -0.519414 -0.426598
0.510652 -0.478743 -0.491754
-0.485389 -0.456141 -0.442389
-0.454382 -0.422911 -0.511646
-0.459234 0.489476 -0.424846
-0.424811 -0.479907 -0.471135
-0.497972 -0.464571 -0.437044
-0.452517 -0.41594 0.482157
-0.488403 -0.427798 -0.53263
-0.444304 0.498282 -0.412622
-0.413211 -0.509067 -0.402934
0.515331 -0.482819 -0.411246
-0.485591 -0.452208 -0.429043
-0.464441 -0.452875 0.472711
-0.433528 -0.383515 -0.501665
-0.456017 0.521468 -0.404771
-0.443781 -0.49905 -0.411942
0.496826 -0.485785 -0.414155
-0.505177 -0.439691 -0.427779
-0.470897 -0.400628 -0.510413
-0.468001 0.504136 -0.391633
-0.457305 -0.506184 -0.395279
0.466472 -0.460247 -0.398353
-0.528823 -0.44328 -0.397365
-0.448058 -0.375353 -0.486607
-0.455316 0.489324 -0.375868
-0.494252 -0.521803 -0.400083
0.470429 -0.440952 -0.373051
-0.510856 -0.459525 -0.381133
-0.448265 -0.344374 0.511512
-0.478509 -0.373341 -0.503159
-0.476345 0.475719 -0.385057
-0.432063 -0.520819 -0.372552
-0.488535 -0.448011 -0.374249
-0.464837 -0.380768 0.51772
-0.452083 0.477783 -0.382426
-0.435494 -0.518859 -0.344867
0.507222 -0.461172 -0.392405
-0.495476 -0.470499 -0.402948
-0.464932 -0.347834 -0.50909
-0.458115 0.454102 -0.368301
-0.409003 -0.522077 -0.316744
0.488912 -0.463657 -0.375384
-0.489935 -0.452748 -0.344642
-0.457201 0.482278 -0.361603
-0.473452 -0.506376 -0.372022
-0.438045 0.495696 -0.321793
-0.443879 -0.524213 -0.347941
0.490901 -0.462222 -0.362444
-0.495398 -0.477854 -0.340954
-0.480673 -0.328364 0.497811
-0.47177 -0.490381 -0.331113
0.490846 -0.499372 -0.353657
-0.500566 -0.435989 -0.333543
-0.419471 -0.336863 0.485894
-0.439104 -0.339913 -0.486546
-0.429631 0.481417 -0.333427
-0.441942 -0.496646 -0.326033
0.495927 -0.467847 -0.33541
-0.507769 -0.472462 -0.311397
-0.430924 -0.288156 -0.474342
-0.434138 0.509363 -0.325119
0.499174 -0.464473 -0.330798
-0.512716 -0.438181 -0.290427
-0.48571 -0.486123 -0.292913
0.485824 -0.451486 -0.277442
-0.468804 -0.39693 -0.27187
-0.452344 -0.310837 -0.506924
-0.465325 -0.502014 -0.277198
-0.477781 0.517271 -0.249378
0.536485 -0.419326 -0.24753
-0.413226 -0.268915 0.512088
-0.441607 -0.265208 -0.530549
-0.453125 0.500038 -0.240512
-0.425911 -0.469114 -0.251498
0.506179 -0.476496 -0.264926
-0.467629 -0.246026 -0.463536
-0.453694 0.504522 -0.282507
-0.43153 -0.473603 -0.283302
0.518388 -0.465433 -0.241305
-0.4646 -0.198464 0.480255
-0.4351 -0.268738 -0.50352
-0.456641 0.47112 -0.236572
0.491725 -0.45292 -0.255079
-0.505802 -0.462277 -0.242164
-0.425922 -0.232886 -0.497671
-0.455329 0.510427 -0.24278
-0.466228 -0.471797 -0.249899
0.486996 -0.447357 -0.266157
-0.477264 -0.467715 -0.233994
-0.482444 -0.223223 0.51957
-0.462413 -0.213575 -0.498222
-0.438561 -0.240833 0.502292
-0.484748 0.497506 -0.213022
0.479278 -0.454265 -0.204423
-0.496327 -0.460459 -0.219659
-0.461653 -0.197387 -0.543572
-0.472328 0.478134 -0.226833
-0.51176 -0.449651 -0.211533
-0.480877 -0.200115 -0.530861
-0.436404 -0.48248 -0.193385
-0.449382 -0.216731 0.522086
-0.402017 -0.202339 -0.473911
-0.437377 0.5249 -0.191611
-0.410616 -0.507331 -0.18747
-0.534787 -0.433907 -0.211095
-0.445134 -0.186254 -0.518492
0.506965 -0.463756 -0.175256
-0.506584 -0.445757 -0.206564
-0.441843 -0.138437 0.473476
-0.438765 -0.178697 -0.482186
-0.481251 -0.491852 -0.135109
0.497524 -0.43545 -0.153049
-0.435422 0.475475 -0.134016
-0.517722 -0.452624 -0.165307
-0.447314 -0.13854 0.518996
-0.435458 -0.149724 -0.533265
-0.456275 -0.494502 -0.159768
-0.478936 -0.491759 -0.164034
-0.42546 -0.143863 -0.516179
-0.493572 0.484769 -0.13204
-0.445027 -0.456558 -0.130743
0.521991 -0.402073 -0.122672
-0.473723 -0.449976 -0.180912
-0.401914 -0.126456 0.47005
-0.466492 -0.132852 -0.464474
-0.423148 -0.490795 -0.132955
-0.48427 -0.439132 -0.157794
-0.463309 0.487282 -0.0894919
-0.429458 -0.504097 -0.0823629
0.536932 -0.450588 -0.139524
-0.51667 -0.476587 -0.0897208
-0.458058 -0.126225 0.484205
-0.415808 -0.106658 -0.488089
-0.454908 0.517167 -0.0912046
0.521379 -0.469681 -0.0768343
-0.487026 0.506994 -0.142515
-0.439053 -0.452696 -0.080377
-0.430243 -0.518246 -0.105518
0.486252 -0.436343 -0.0928063
-0.445687 0.511741 -0.0923296
-0.444671 -0.487229 -0.0771549
0.45469 -0.433011 -0.0668974
-0.467764 -0.425258 -0.0946249
-0.409193 -0.0631383 0.495578
-0.46076 0.49525 -0.0933903
-0.450685 -0.0534456 -0.488433
-0.488482 -0.4521 -0.0664421
-0.461064 -0.478219 -0.068547
-0.497274 -0.415343 -0.0331572
-0.513843 -0.0333219 0.543655
-0.426559 -0.0154782 -0.506354
-0.455303 -0.00134065 0.52245
-0.414452 -0.515933 -0.0325903
-0.460799 0.496795 -0.0311167
0.507084 -0.473475 0.00507876
-0.462183 0.0134594 -0.503151
-0.446289 -0.48231 -0.0110826
0.529477 -0.438084 0.00420703
-0.498175 -0.495233 0.00285984
-0.438191 0.0235086 0.525998
-0.438711 0.0765385 -0.494878
-0.403969 -0.511497 -0.00250765
-0.447358 0.0397382 0.520035
0.497416 -0.428053 -0.00911249
-0.505869 -0.431784 0.010295
0.495977 -0.448438 0.0382531
-0.502948 -0.478058 0.0399651
-0.449547 0.493541 0.0644077
0.469886 -0.41949 0.0125973
-0.516588 -0.484266 0.0574088
-0.428218 0.0630755 0.488893
-0.484088 -0.516491 0.0617893
0.513812 -0.457021 0.0607407
-0.425411 -0.465111 0.0563666
-0.428309 0.0630359 0.497481
-0.399403 0.490718 0.0331396
-0.459506 -0.506517 0.107071
-0.434852 0.0652425 -0.488116
-0.462514 0.515899 0.0947703
-0.450797 -0.518256 0.106703
0.537781 -0.464313 0.0805953
-0.547208 -0.465851 0.092352
-0.440416 0.486144 0.0650978
-0.517151 -0.48176 0.0757761
-0.500618 0.118101 -0.494868
0.522188 -0.495808 0.110885
-0.465787 0.12698 0.481658
-0.495556 0.1237 -0.517385
-0.481004 -0.456002 0.148586
-0.446984 0.13785 0.467129
-0.445377 0.0944471 -0.478306
-0.430504 0.464532 0.165903
-0.477861 -0.504795 0.11555
-0.511365 -0.415408 0.104579
-0.452085 0.499093 0.165592
-0.465943 -0.50115 0.155121
0.459084 -0.431928 0.147272
-0.474849 -0.436089 0.160852
-0.419399 0.155269 -0.544919
-0.462066 0.531399 0.179827
0.512435 -0.432105 0.16131
-0.51601 -0.413714 0.179105
-0.447111 0.182179 -0.48146
-0.449267 0.489144 0.145036
0.478831 -0.427143 0.147205
-0.515373 -0.460752 0.144867
-0.437718 0.168629 -0.514294
-0.429088 0.500286 0.174194
-0.457749 -0.480069 0.146698
0.495042 -0.461451 0.186567
-0.516214 -0.418253 0.149662
-0.434518 0.180429 0.514122
-0.453723 0.172963 -0.508216
-0.40304 0.507593 0.192889
-0.516093 -0.444166 0.177417
-0.474663 0.201296 -0.49928
-0.468695 0.504673 0.160688
-0.442347 -0.504271 0.168299
-0.452075 -0.437566 0.2241
-0.42835 0.208228 0.481835
-0.456884 0.20598 -0.510254
-0.422255 0.50539 0.195672
-0.428353 -0.47314 0.207523
0.495822 -0.449676 0.217283
-0.476105 0.226994 -0.486365
-0.462698 0.478544 0.220514
-0.475971 -0.506564 0.225074
0.512341 -0.463768 0.234846
-0.439871 0.225188 0.501845
-0.426029 0.253567 -0.458716
-0.441187 0.476963 0.209763
-0.454388 -0.47749 0.244107
-0.47347 0.229996 0.481107
-0.422788 -0.463259 0.253648
0.512696 -0.467837 0.202124
-0.48439 -0.468338 0.236455
-0.437124 0.237363 0.482293
-0.48487 0.228764 -0.516725
-0.476339 0.495937 0.273183
0.502004 -0.431526 0.253609
-0.475568 -0.432971 0.263223
-0.454294 0.262236 0.505566
-0.444201 0.272523 -0.532034
-0.460314 0.497051 0.254443
-0.424192 -0.478841 0.263477
0.496057 -0.429487 0.25573
-0.512704 -0.450064 0.23378
-0.438095 0.27049 0.467809
-0.434941 0.279639 -0.521003
-0.460207 0.503956 0.306051
0.487291 -0.448396 0.30357
-0.425826 0.312103 0.519462
-0.429945 0.274904 -0.495773
-0.440624 0.460125 0.243782
-0.463379 -0.505144 0.317096
0.510299 -0.43888 0.269319
-0.499306 -0.431401 0.2669
-0.44342 0.330141 0.503433
-0.440497 0.303957 -0.503952
-0.4207 0.501704 0.294632
-0.406045 -0.478802 0.297581
0.488305 -0.477486 0.264848
-0.552621 -0.441314 0.278703
-0.452824 0.322171 0.508781
-0.414719 0.474344 0.283294
-0.43846 -0.489463 0.280117
0.52372 -0.449342 0.316393
-0.495742 -0.453522 0.318987
-0.414318 0.30307 0.512468
-0.433567 0.291033 -0.493146
-0.452672 0.476267 0.266716
-0.428243 -0.483743 0.297432
0.521652 -0.435609 0.327872
-0.473018 0.333774 -0.501607
-0.452364 0.455406 0.356423
-0.452712 -0.472014 0.326694
0.50581 -0.447383 0.320644
-0.474727 -0.465902 0.324689
-0.479569 0.340268 0.485274
-0.454648 0.352401 -0.507546
-0.473712 0.498067 0.334128
0.483662 -0.447045 0.308896
-0.522825 -0.454785 0.322964
-0.451432 0.348135 0.507122
-0.456378 0.341155 -0.512855
-0.412887 0.521025 0.333079
-0.443805 -0.477483 0.285744
0.491798 -0.475342 0.329261
-0.498479 -0.466618 0.360491
-0.448256 0.341665 0.481252
-0.442006 0.361029 -0.506367
-0.455136 0.503116 0.362566
-0.439233 -0.498871 0.354038
0.509446 -0.44722 0.363427
-0.512839 -0.449998 0.346179
-0.438229 0.376047 0.498545
-0.429772 0.353137 -0.508181
-0.439741 -0.500289 0.34664
0.501708 -0.456226 0.331574
-0.460103 0.347335 0.49424
-0.454529 0.34275 -0.519591
-0.460674 0.507207 0.365729
-0.462703 -0.522524 0.340245
0.479936 -0.455712 0.36172
-0.444824 -0.432986 0.321285
-0.463039 0.382828 0.493046
-0.440451 0.486499 0.393415
-0.460587 -0.484884 0.366033
0.523094 -0.407891 0.335651
-0.513261 -0.469754 0.407535
-0.455274 0.375853 0.498515
-0.480031 0.525814 0.372516
-0.423537 -0.454004 0.402041
0.535423 -0.478927 0.368737
-0.507131 -0.430712 0.398353
-0.473313 0.398317 0.551986
-0.433085 0.416133 -0.526513
-0.43892 0.473842 0.381345
-0.442902 -0.518236 0.440087
0.492724 -0.455021 0.404556
-0.513822 -0.452884 0.387135
-0.472952 0.377615 0.464103
-0.452391 0.460039 -0.514588
-0.433358 0.489727 0.432996
-0.461043 -0.517488 0.335918
0.489631 -0.444673 0.403214
-0.484727 -0.467671 0.411589
-0.480441 0.422064 0.455031
-0.439191 0.428294 -0.524542
-0.484591 0.503329 0.456275
-0.47271 -0.465701 0.412759
0.514765 -0.429922 0.462217
-0.520836 -0.437655 0.419322
-0.43779 0.448399 0.478052
-0.480317 0.411523 -0.510696
-0.447338 0.527757 0.423698
-0.439686 -0.523785 0.459075
0.505729 -0.445864 0.41699
-0.527454 -0.443674 0.438549
-0.420867 0.447735 0.484168
-0.448324 0.442846 -0.515638
-0.463637 0.491385 0.450923
-0.452737 -0.522577 0.410323
0.516874 -0.447365 0.435652
-0.521468 -0.442764 0.429633
-0.442576 0.479215 0.463373
-0.475904 0.405526 -0.530793
-0.436254 0.512942 0.449643
-0.43379 -0.508838 0.411529
0.481266 -0.434125 0.482175
-0.509904 -0.439304 0.465589
-0.42913 0.443424 0.534771
-0.446061 0.462983 -0.495673
-0.483046 0.492038 0.452245
-0.430458 -0.484157 0.436481
0.517455 -0.473906 0.480995
-0.506769 -0.436048 0.474792
-0.478909 0.487086 0.496943
-0.431102 0.447499 -0.488686
-0.440439 0.534521 0.454129
-0.467183 -0.549811 0.445898
0.5081 -0.479738 0.503471
-0.509361 -0.44672 0.495061
-0.434475 0.459307 0.500936
-0.459733 0.465616 -0.524505
-0.465949 0.493269 0.412247
-0.412907 -0.53432 0.503956
0.497614 -0.437127 0.442082
-0.480588 -0.450921 0.476225
-0.458649 0.495539 0.4817
-0.446397 0.46856 -0.485209
-0.460893 0.500292 0.481735
-0.463531 -0.476931 0.473705
0.486444 -0.46028 0.456562
-0.512506 -0.442369 0.484788
-0.464146 0.489794 0.482971
-0.441 0.506486 -0.491573
-0.423128 0.500984 0.478566
-0.441398 -0.492537 0.49948
0.491821 -0.439811 0.544573
-0.498012 -0.436289 0.488301
-0.427455 -0.487533 0.465362
-0.460837 -0.49392 -0.520829
-0.422937 0.495257 -0.520834
-0.441585 -0.524756 -0.459636
0.489471 -0.449384 -0.516653
-0.49401 -0.457848 -0.512312
-0.44988 -0.468925 0.503154
-0.440114 -0.502905 -0.505238
-0.435765 0.51935 -0.506079
-0.455027 -0.49588 -0.502651
0.499863 -0.475978 -0.523433
-0.485931 -0.442698 -0.468069
-0.433409 -0.482943 0.515803
-0.453355 -0.463043 -0.5017
-0.428803 0.53195 -0.477086
-0.434044 -0.478611 -0.485025
0.492845 -0.463579 -0.473029
-0.498778 -0.440054 -0.476949
-0.441901 -0.466782 0.479557
-0.417327 -0.487929 -0.488086
-0.410241 0.472833 -0.431479
-0.449773 -0.475425 -0.479909
-0.494345 -0.429032 -0.453225
-0.454455 -0.469645 0.51785
-0.454297 -0.48472 -0.524147
-0.451034 0.529867 -0.473221
-0.462286 -0.487381 -0.478958
0.495661 -0.453747 -0.436605
-0.471017 -0.444057 -0.454291
-0.391842 -0.449868 0.51797
-0.451004 0.486151 -0.437772
-0.433946 -0.471676 -0.508621
0.515095 -0.440346 -0.431958
-0.486589 -0.445593 -0.411251
-0.431475 -0.416736 0.496221
-0.448068 -0.452529 -0.479802
-0.410021 0.511063 -0.410772
-0.387696 -0.516525 -0.47141
0.503079 -0.448477 -0.446965
-0.521664 -0.419306 -0.425593
-0.457865 -0.405859 0.500358
-0.433615 -0.432946 -0.50017
-0.461578 0.505019 -0.433625
0.488073 -0.430479 -0.441982
-0.495854 -0.425972 -0.422156
-0.425408 -0.414017 0.554869
-0.445443 -0.417312 -0.518174
-0.4486 -0.513275 -0.454646
0.462046 -0.466938 -0.414071
-0.505536 -0.466191 -0.408176
-0.484162 -0.414626 -0.47554
-0.462926 0.465379 -0.447174
-0.406699 -0.492143 -0.403287
0.512663 -0.452314 -0.415849
-0.500666 -0.445724 -0.425767
-0.44467 -0.389223 0.502534
-0.477161 -0.382265 -0.505379
-0.445501 0.511051 -0.42042
-0.459496 -0.491369 -0.406066
0.512881 -0.439584 -0.37767
-0.513325 -0.443909 -0.390381
-0.42513 -0.386067 0.505357
-0.439117 -0.379502 -0.522561
-0.478094 0.490664 -0.38368
-0.457986 -0.470205 -0.37961
0.496743 -0.441898 -0.408277
-0.517445 -0.453745 -0.396287
-0.406656 -0.357367 0.474462
-0.407243 -0.384259 -0.495406
-0.459642 0.510006 -0.430754
-0.426378 -0.50012 -0.389861
0.531408 -0.43793 -0.394531
-0.482414 -0.432648 -0.385248
-0.422906 -0.371282 0.514897
-0.419645 0.46238 -0.370447
-0.446972 -0.388912 0.506522
-0.471296 -0.338118 -0.482408
-0.428684 0.516492 -0.385299
-0.447299 -0.519693 -0.360009
0.49517 -0.461321 -0.322826
-0.454139 -0.34222 0.526957
-0.46466 -0.36928 -0.513618
-0.433039 0.54311 -0.368202
0.508462 -0.471278 -0.295048
-0.500757 -0.423801 -0.351233
-0.43076 -0.339165 0.510033
-0.434653 -0.345744 -0.472984
-0.47055 0.52574 -0.387721
0.504581 -0.433318 -0.337609
-0.467343 -0.448053 -0.31782
-0.441347 -0.336792 0.520767
-0.438205 -0.307377 -0.525113
-0.505137 -0.447006 -0.346799
-0.43604 -0.347545 0.503155
-0.421507 -0.332821 -0.533617
-0.397855 0.493275 -0.288884
-0.436875 -0.506431 -0.326726
0.490422 -0.407731 -0.332974
-0.475535 -0.473232 -0.27566
-0.448416 -0.288041 0.49598
-0.396175 -0.328451 -0.523209
-0.426514 0.502801 -0.319976
-0.451323 -0.473056 -0.339579
0.485207 -0.469843 -0.282034
-0.512879 -0.458276 -0.300443
-0.43035 -0.335685 0.504116
-0.417447 -0.288316 -0.494904
-0.389205 -0.482769 -0.280597
-0.519189 -0.444802 -0.302098
-0.40313 -0.280475 0.484957
-0.448616 -0.309244 -0.514054
-0.430115 0.501543 -0.293126
-0.411653 -0.472734 -0.278324
0.508066 -0.451549 -0.284566
-0.508356 -0.412225 -0.232791
-0.417211 -0.312451 0.500412
-0.43887 0.490941 -0.274405
-0.471479 -0.513361 -0.284898
0.516637 -0.455233 -0.336373
-0.433094 0.511248 -0.253939
-0.451548 -0.502327 -0.282586
-0.461632 -0.454796 -0.251207
-0.418255 -0.24518 0.502176
-0.431937 -0.24176 -0.47124
-0.4485 0.511211 -0.264734
-0.450336 -0.500124 -0.25797
-0.449281 -0.234347 0.474632
-0.44693 -0.23763 -0.521012
-0.431766 -0.51008 -0.259505
0.490106 -0.43054 -0.242736
-0.475652 -0.420904 -0.238325
-0.450445 -0.244777 -0.492412
-0.468277 0.489201 -0.269803
-0.403933 -0.488192 -0.260744
-0.509116 -0.457164 -0.215982
-0.443989 0.483113 -0.212458
0.500509 -0.430501 -0.244072
-0.46505 -0.200511 -0.484447
-0.445278 -0.513574 -0.214569
0.468054 -0.437825 -0.19828
-0.515464 -0.479755 -0.184176
-0.46368 0.46491 -0.218961
0.483688 -0.451536 -0.215331
-0.505001 -0.430331 -0.197246
-0.451875 -0.16551 0.474755
-0.431083 0.490776 -0.170072
0.476518 -0.434905 -0.190455
-0.461641 -0.170033 0.50175
-0.436757 -0.163149 -0.46277
-0.436623 -0.487801 -0.139103
0.447033 -0.437389 -0.170238
0.487411 -0.389785 -0.173315
-0.490723 -0.421554 -0.163093
-0.444549 -0.120536 0.505283
-0.461911 -0.123761 0.462104
-0.441642 0.500485 -0.139598
-0.463148 -0.519628 -0.137141
-0.449335 -0.153179 0.470075
-0.417761 -0.162052 -0.512859
-0.430238 0.472671 -0.136613
-0.411729 -0.498551 -0.147171
0.508872 -0.43468 -0.150211
-0.411507 -0.142986 0.523178
-0.46004 0.494401 -0.0892933
0.485138 -0.393623 -0.123623
-0.473928 -0.434349 -0.120798
-0.465131 -0.146194 -0.50153
-0.416773 -0.140436 0.479141
-0.474534 0.54314 -0.0991889
-0.446791 -0.129618 -0.498213
-0.458178 0.471776 -0.0796602
-0.413204 -0.470435 -0.0812868
-0.435411 -0.0915167 0.499059
-0.427451 -0.108106 -0.482969
0.519749 -0.448855 -0.0634616
-0.458579 0.518752 -0.0395096
-0.441619 -0.491789 -0.0750436
-0.494282 -0.410764 -0.0971603
-0.464015 -0.0281809 -0.508815
-0.432645 -0.511426 -0.0732934
-0.454558 -0.0520323 0.485663
-0.453133 0.528455 -0.0813569
-0.411855 -0.500012 -0.0489365
-0.406599 -0.0498169 0.483039
-0.457879 0.551097 -0.0345689
-0.48806 -0.431914 -0.0678515
-0.402752 -0.0336946 0.484443
-0.420618 -0.0200738 -0.465915
-0.424049 0.493171 -0.042073
-0.448665 -0.508602 -0.00399181
-0.464075 -0.0320795 -0.488529
-0.448864 -0.495934 -0.0113817
-0.470735 -0.441727 -0.0301284
-0.457834 -0.0262251 0.503496
-0.461357 -0.01886 -0.497668
-0.469776 -0.462264 -0.0179976
-0.416628 0.00818294 0.489751
-0.444365 0.0123886 -0.475834
-0.418036 -0.494088 -0.0164816
-0.431795 0.057035 0.485228
0.503996 -0.453408 0.0408086
-0.522631 -0.445919 0.00402089
-0.423549 0.0321194 0.505516
0.50933 -0.466354 0.0242547
-0.474034 -0.468489 0.0525401
-0.461528 0.0357991 0.499805
-0.434404 -0.48809 0.0430607
0.50986 -0.447425 0.0272701
-0.501042 -0.421724 0.0477434
-0.468058 0.0402836 0.513649
-0.463974 0.0442159 -0.511422
-0.438726 -0.490638 0.0602718
-0.472227 -0.48624 0.0151118
-0.418802 0.0336181 0.511713
-0.43869 0.0657695 -0.507746
-0.448271 -0.515451 0.0136698
-0.453996 0.487844 0.0404663
-0.42235 0.0762595 0.489401
0.520677 -0.417687 0.089433
-0.542306 -0.400676 0.0780037
-0.411767 0.109658 -0.509166
-0.460186 -0.542504 0.105274
0.513846 -0.436286 0.0937913
-0.4633 0.114592 -0.497305
-0.453304 0.497768 0.10825
-0.457434 -0.512839 0.0842689
-0.525098 -0.492566 0.123866
-0.430123 0.127953 0.481182
-0.418959 0.141459 -0.512353
-0.439 0.483988 0.112557
-0.41585 -0.483584 0.0819861
-0.405023 0.119708 -0.497937
0.481435 -0.443042 0.110263
-0.500976 -0.407465 0.148945
-0.470507 0.153524 0.513825
-0.444382 0.157284 -0.514715
0.478314 -0.42222 0.0987614
-0.49283 -0.47901 0.16882
-0.443048 0.187681 -0.523988
-0.480576 0.189225 0.477734
-0.467158 0.489635 0.150521
-0.472955 -0.485285 0.163622
-0.500445 -0.435321 0.176883
-0.45796 0.467126 0.164076
0.490957 -0.430841 0.148635
-0.438957 0.15212 0.466253
-0.456242 0.215768 -0.513527
-0.446152 0.488724 0.184009
-0.457469 -0.476249 0.163434
-0.442285 0.215504 0.503603
-0.442609 0.204948 -0.469578
-0.448083 0.534854 0.190082
-0.466083 -0.450072 0.192665
-0.436301 0.194872 0.485734
-0.424447 0.494998 0.208156
-0.438065 -0.467096 0.23055
0.501047 -0.464528 0.226064
-0.497919 -0.463685 0.222492
-0.41424 0.224103 0.504922
-0.442298 0.489656 0.225215
-0.440095 -0.515674 0.227037
-0.514598 -0.46418 0.218089
-0.426238 0.236034 0.491702
-0.467865 0.23751 -0.485074
-0.469268 0.507474 0.205409
-0.511507 0.234197 -0.503823
-0.469397 0.51172 0.218444
-0.415459 -0.480814 0.205537
0.519032 -0.442479 0.235372
-0.482689 -0.450607 0.239535
-0.489912 0.266415 0.517205
-0.413361 0.235306 -0.49747
-0.451948 -0.49746 0.233009
-0.464043 -0.432796 0.268498
-0.44534 0.252749 -0.483968
-0.447163 0.498607 0.295138
0.461541 -0.431613 0.263344
-0.518913 -0.446623 0.282966
-0.454187 0.298092 0.505085
-0.439139 0.277816 -0.486608
-0.439461 0.467551 0.276037
-0.490825 -0.467504 0.267294
-0.418986 0.282162 0.478386
-0.437575 0.465001 0.320188
-0.46083 -0.506912 0.287198
0.524582 -0.433362 0.237655
-0.501059 -0.474866 0.273462
-0.457826 0.322514 0.503829
-0.40738 0.482895 0.27852
-0.392038 0.311213 -0.507572
0.469924 -0.438397 0.286281
-0.504735 -0.411205 0.311993
-0.4406 0.314597 0.519585
-0.442898 0.317468 -0.488274
-0.433168 0.51111 0.320507
-0.466905 -0.51035 0.304317
-0.412617 0.301298 -0.493584
-0.442418 0.506463 0.339426
0.460702 -0.42341 0.327692
-0.50354 -0.451065 0.298072
-0.445238 0.339484 0.487988
-0.411266 0.329957 -0.504981
-0.456259 -0.516514 0.322294
0.471231 -0.445567 0.315252
-0.487467 -0.460137 0.351403
-0.422939 0.365305 0.492564
-0.432663 0.501956 0.339441
-0.438375 -0.50135 0.340097
0.479451 -0.470956 0.36328
-0.436588 0.359673 0.490887
-0.424729 0.355064 -0.503863
-0.452755 0.480145 0.350158
-0.43219 -0.503409 0.352676
0.509261 -0.420672 0.379877
-0.522046 -0.420462 0.364504
-0.434171 0.357927 0.501581
-0.42779 0.513917 0.365962
-0.438199 -0.474923 0.368412
0.51699 -0.460155 0.377031
-0.49517 -0.441226 0.379274
-0.446745 0.338196 0.51612
-0.407655 0.344229 -0.53954
-0.419427 0.503207 0.362831
-0.402021 -0.457893 0.368701
0.47672 -0.444694 0.383048
-0.499936 -0.439057 0.361793
-0.449342 0.344797 0.486426
-0.422394 0.3573 -0.499306
-0.425345 0.522602 0.399795
-0.418919 -0.528526 0.380102
0.520416 -0.444556 0.393315
-0.503755 -0.45949 0.399484
-0.410926 0.402705 0.460387
-0.45232 0.39466 -0.469319
-0.462905 0.525744 0.370742
-0.414659 -0.488354 0.384053
0.502531 -0.45969 0.37289
-0.42939 0.446535 0.483251
-0.412316 0.481982 0.410123
-0.457853 -0.482177 0.403437
0.527324 -0.40444 0.402023
-0.420198 0.392214 0.485846
-0.439893 0.390988 -0.530018
-0.442329 0.494415 0.382704
-0.439081 -0.529068 0.394332
0.49966 -0.426087 0.428488
-0.479531 -0.406901 0.384731
-0.432828 0.434931 0.470876
-0.448375 0.422834 -0.532178
-0.458303 0.515401 0.419036
-0.420922 -0.523723 0.431643
0.498828 -0.433786 0.420198
-0.545572 -0.414071 0.439979
-0.430129 0.409589 0.50892
-0.442301 0.455741 -0.474528
-0.454232 0.503045 0.45109
-0.425641 -0.5016 0.447888
0.492213 -0.404694 0.398983
-0.546373 -0.44848 0.425687
-0.4605 0.42856 0.515848
-0.426265 0.44357 -0.501733
-0.429044 0.514355 0.411909
-0.418725 -0.483852 0.424627
0.49768 -0.458067 0.439106
-0.425231 0.474266 0.524028
-0.476475 0.448061 -0.512124
-0.45737 0.477459 0.405125
-0.422623 -0.518762 0.444172
0.50732 -0.455961 0.473572
-0.533977 -0.401537 0.471539
-0.455447 0.461962 0.503514
-0.43193 0.422489 -0.519374
-0.404515 0.520824 0.47792
-0.462497 -0.50193 0.474146
0.48012 -0.436264 0.439736
-0.57234 -0.447447 0.479698
-0.46095 0.472776 0.508934
-0.482763 0.498167 0.487385
-0.451342 -0.494588 0.500802
0.522903 -0.424528 0.46645
-0.468949 -0.463547 0.483328
-0.450882 0.496211 0.460793
-0.466791 0.437618 -0.534151
-0.434222 0.491594 0.467945
-0.457239 -0.528084 0.500287
0.522476 -0.421542 0.448764
-0.47851 -0.452446 0.517177
-0.408101 0.4696 0.516938
-0.451445 0.485554 -0.496225
-0.471892 0.51442 0.461222
-0.426996 -0.481425 0.475686
0.479587 -0.394681 0.470221
-0.508469 -0.425608 0.467703
-0.450288 0.486229 0.480927
-0.420185 0.511815 -0.535426
-0.447443 0.49681 0.508394
-0.462816 -0.488671 0.535261
0.472194 -0.466777 0.508632
-0.527221 -0.457713 0.489895
-0.419599 -0.493588 0.477916
-0.438782 -0.49108 -0.516056
-0.463712 0.478045 -0.514034
-0.431124 -0.50734 -0.463143
0.534808 -0.426942 -0.511781
-0.503471 -0.462916 -0.500478
-0.438006 -0.481111 0.516415
-0.441104 -0.477042 -0.492115
-0.446017 0.473372 -0.509089
-0.459757 -0.504138 -0.466344
0.528354 -0.418963 -0.50048
-0.481495 -0.429823 -0.468788
-0.461014 -0.502094 0.513939
-0.43133 -0.431337 -0.518311
-0.405611 0.523456 -0.498099
-0.403132 -0.519446 -0.478761
0.496416 -0.420044 -0.475718
-0.487414 -0.436612 -0.484836
-0.433168 -0.490746 0.513434
-0.453805 -0.488212 -0.491178
-0.423268 0.497288 -0.447018
-0.448963 -0.526047 -0.503972
0.471871 -0.437577 -0.46697
-0.502787 -0.442672 -0.482124
-0.416615 -0.477806 0.478419
-0.414808 -0.48491 -0.525885
-0.425607 0.491059 -0.470732
-0.420768 -0.517672 -0.480683
0.494911 -0.410827 -0.491779
-0.479889 -0.413732 -0.463799
-0.425606 -0.418995 0.501848
-0.428267 -0.456141 -0.473847
-0.439526 0.474273 -0.443809
-0.470513 -0.515712 -0.423586
0.512777 -0.412455 -0.411998
-0.489726 -0.455396 -0.46077
-0.432559 -0.414341 0.504796
-0.430472 -0.413978 -0.487236
-0.417009 0.454311 -0.442801
-0.437793 -0.507929 -0.412203
0.496123 -0.425184 -0.434469
-0.476586 -0.425634 -0.4124
-0.405725 -0.431415 0.506723
-0.413762 -0.441242 -0.499795
-0.423943 0.503048 -0.411919
-0.4545 -0.489942 -0.408195
0.53022 -0.421457 -0.412864
-0.466116 -0.426718 -0.417745
-0.434927 -0.43806 0.525678
-0.400646 0.462472 -0.381535
-0.396346 -0.466522 -0.396021
0.508045 -0.397126 -0.424035
-0.514053 -0.453314 -0.415479
-0.469346 -0.38897 0.532316
-0.4446 -0.429576 -0.478155
-0.4653 0.484552 -0.397796
0.49108 -0.409828 -0.425086
-0.532622 -0.419454 -0.390484
-0.417824 -0.396724 0.506285
-0.420983 -0.38998 -0.518428
-0.451178 0.490062 -0.406584
-0.40255 -0.498602 -0.403895
0.491503 -0.432082 -0.384647
-0.522984 -0.40643 -0.427643
-0.398317 -0.399386 0.509747
-0.389685 0.526661 -0.402879
-0.43511 -0.507032 -0.379535
0.520435 -0.439945 -0.330244
-0.489264 -0.45076 -0.402155
-0.435381 -0.422971 0.462822
-0.392603 -0.497241 -0.379876
0.506242 -0.411752 -0.398914
-0.518478 -0.427228 -0.381222
-0.428863 -0.390496 0.549702
-0.420714 -0.35728 -0.499952
-0.455362 0.511816 -0.390424
-0.440222 -0.494705 -0.375225
0.532943 -0.431402 -0.365345
-0.514121 -0.475332 -0.399698
-0.423895 0.452926 -0.368081
-0.473943 -0.478822 -0.347295
0.506806 -0.426503 -0.366898
-0.488163 -0.457283 -0.332308
-0.406637 -0.399931 0.496859
-0.420489 -0.343504 -0.499271
-0.409041 0.4563 -0.36541
-0.43443 -0.495151 -0.306458
0.512007 -0.431958 -0.343729
-0.536952 -0.44494 -0.340602
-0.405263 -0.346684 0.497093
-0.439427 -0.302109 -0.489823
-0.422918 0.500321 -0.35554
-0.434181 -0.490363 -0.334553
0.47829 -0.405007 -0.337391
-0.525352 -0.418428 -0.318394
-0.425957 -0.334781 0.502867
-0.45361 -0.369797 -0.472598
-0.43003 0.512075 -0.318316
-0.459373 -0.539948 -0.333962
0.49257 -0.422375 -0.305105
-0.48866 -0.407543 -0.325146
-0.454515 -0.310776 0.487581
-0.435446 0.511374 -0.309336
-0.453776 -0.520269 -0.339768
-0.47918 -0.447687 -0.334749
-0.402869 -0.50797 -0.339775
0.488173 -0.447163 -0.303925
-0.458952 -0.315697 0.491006
-0.427075 -0.322552 -0.496919
-0.44495 -0.488365 -0.309889
-0.428694 0.536253 -0.270698
-0.530188 -0.446376 -0.316732
-0.422111 -0.253056 -0.498905
0.469458 -0.460496 -0.300266
-0.427912 -0.27693 0.534045
-0.449947 -0.295371 -0.503585
-0.383672 -0.4708 -0.2726
-0.491763 -0.442923 -0.26455
-0.457125 0.496369 -0.277441
0.515538 -0.425617 -0.232002
-0.497308 -0.43626 -0.22974
-0.446982 -0.220577 0.49762
-0.400019 -0.239988 -0.466185
-0.432637 -0.505284 -0.255008
-0.507148 -0.406009 -0.254533
-0.448932 0.506251 -0.237065
-0.444856 -0.497796 -0.230061
0.519317 -0.401334 -0.197761
-0.422418 -0.231697 0.518899
-0.422017 -0.204322 -0.525154
-0.409134 0.512725 -0.213189
-0.430051 -0.503095 -0.191508
-0.508221 -0.424157 -0.22136
-0.462589 -0.20984 0.545053
-0.437491 0.490434 -0.269989
0.472985 -0.431811 -0.204191
-0.464758 -0.456318 -0.251779
-0.423211 -0.211553 0.453378
-0.414915 0.506567 -0.175502
-0.417025 -0.513111 -0.185246
-0.388942 -0.485659 -0.197414
-0.420411 -0.164153 0.519031
-0.441701 0.479912 -0.151248
0.520714 -0.384545 -0.171104
-0.439859 -0.141436 0.474912
-0.426662 -0.143544 -0.515407
-0.428543 0.488393 -0.14679
-0.39506 -0.465975 -0.149615
0.498487 -0.419577 -0.131687
-0.449907 -0.145101 0.534497
-0.439891 -0.124225 -0.487059
-0.417135 -0.495529 -0.145714
-0.411421 -0.110038 -0.510522
-0.430847 0.47988 -0.161073
0.468897 -0.426313 -0.149713
-0.426455 -0.111263 -0.5184
-0.459687 -0.114597 -0.493012
0.481138 -0.423351 -0.103364
0.486119 -0.452297 -0.0797154
-0.505637 -0.433654 -0.054312
-0.434871 -0.0644499 -0.497557
-0.41597 -0.0919444 -0.510389
-0.46806 -0.0614646 0.499498
-0.443781 0.482924 -0.0504496
0.467082 -0.407914 -0.0335328
-0.464301 -0.401515 -0.0256862
-0.444398 -0.0348353 0.480435
-0.441706 -0.0158362 -0.479636
-0.435107 0.461676 0.00279407
0.467317 -0.414753 0.054753
-0.48301 -0.430558 0.0599437
-0.442478 0.00218007 -0.468383
-0.456238 -0.506699 0.0446758
-0.477238 -0.4222 0.0602242
-0.421493 0.0508145 0.515479
-0.491126 -0.451997 0.0543634
0.510229 -0.437333 0.0443413
-0.443194 0.482168 0.105489
0.522429 -0.430324 0.109199
-0.434757 0.533674 0.087942
0.489606 -0.437357 0.102465
-0.433266 -0.50077 0.0970192
-0.436573 0.10563 0.464432
-0.411864 0.0818809 -0.466343
-0.445371 0.481637 0.0815895
-0.420567 0.097193 0.51854
-0.442428 -0.49183 0.115939
-0.409332 -0.479975 0.119932
0.566469 -0.430501 0.14591
-0.47002 0.17096 0.48509
0.48603 -0.427231 0.177354
-0.434873 0.196764 0.499009
-0.468685 0.144855 -0.519104
-0.425662 0.173074 0.512251
-0.411084 0.17433 -0.53914
0.517161 -0.435271 0.177312
-0.437059 0.144907 -0.483372
-0.445334 0.486067 0.167698
-0.411918 -0.491821 0.175451
-0.502167 -0.45402 0.158876
-0.424542 0.189212 0.488061
0.484662 -0.420546 0.153861
-0.495199 -0.456193 0.17332
-0.416288 0.165406 -0.474438
0.498315 -0.427588 0.213296
-0.407482 0.22325 0.490278
-0.403638 -0.478667 0.228173
0.501104 -0.437406 0.215026
-0.536942 -0.42196 0.191649
-0.414038 0.184865 0.463622
-0.426822 0.516687 0.22691
0.48522 -0.426604 0.208624
-0.52258 -0.407788 0.227711
-0.439157 0.241795 0.480503
-0.402619 0.242759 -0.469277
-0.425135 -0.491901 0.241195
0.514595 -0.414784 0.226775
-0.529392 -0.406995 0.203113
-0.466987 0.218916 -0.474442
0.513755 -0.455586 0.226573
-0.519862 -0.466071 0.239343
-0.425879 -0.47986 0.244184
0.4986 -0.423167 0.240964
-0.418427 0.263619 -0.520262
-0.427916 -0.482473 0.271955
0.500395 -0.412712 0.253157
-0.483524 -0.396128 0.275908
-0.431502 0.256936 0.530787
-0.418065 0.230347 -0.535121
-0.407052 0.503932 0.28967
-0.423857 -0.476078 0.24197
0.490796 -0.405066 0.259462
-0.525859 -0.455984 0.261286
-0.41989 0.323531 0.497429
-0.515688 -0.402069 0.31003
-0.416049 0.281574 0.501156
-0.42291 -0.480204 0.292963
0.504894 -0.435975 0.322668
-0.38604 0.307775 -0.48702
-0.485222 -0.528924 0.272359
0.48501 -0.405354 0.289724
-0.510002 -0.432699 0.290526
-0.426184 0.326792 -0.49805
-0.407103 0.502617 0.30387
-0.41246 -0.504528 0.338018
0.489586 -0.431446 0.317559
-0.484862 -0.418764 0.275069
-0.397475 0.345598 0.509515
-0.445856 -0.472149 0.292285
0.450292 -0.419975 0.323714
-0.449049 0.350605 -0.530755
-0.427155 0.511628 0.341609
-0.399523 -0.479803 0.322748
0.482519 -0.405496 0.350023
-0.498735 -0.451875 0.353265
-0.427391 0.296429 0.483738
-0.435626 0.348023 -0.510326
-0.474358 0.466776 0.3873
-0.444105 -0.51509 0.355232
0.515298 -0.425274 0.376586
-0.485431 -0.400144 0.362745
-0.432211 0.331965 0.496436
-0.446051 0.331209 -0.482325
-0.403506 0.484293 0.343689
-0.445366 -0.54507 0.332553
0.533738 -0.441443 0.36937
-0.521376 -0.431105 0.335256
-0.400187 0.34965 -0.482343
-0.430112 -0.501203 0.387516
-0.471859 -0.432226 0.362841
-0.446135 0.394182 0.504811
-0.441107 0.341494 -0.498181
-0.442476 -0.509499 0.341358
0.451832 -0.433913 0.372112
-0.436317 0.379014 0.534118
-0.418363 0.37559 -0.489187
-0.388978 0.540985 0.379386
-0.420655 -0.500904 0.385085
-0.505931 -0.422102 0.415639
-0.432416 0.403203 0.497068
-0.399702 0.383733 -0.51538
-0.402333 0.530539 0.432798
-0.434774 -0.490325 0.399887
-0.471679 -0.422362 0.415692
-0.430513 0.426623 0.488536
-0.455476 0.415636 -0.468319
-0.43041 0.472813 0.379493
-0.408784 -0.498108 0.422053
0.497167 -0.447349 0.4299
-0.510412 -0.47779 0.418622
-0.443402 0.425322 0.508113
-0.431976 0.425924 -0.511295
-0.413469 0.480915 0.420116
-0.439258 -0.471904 0.469892
0.507397 -0.462221 0.412588
-0.498804 -0.41391 0.41976
-0.434071 0.434355 0.492692
-0.446139 0.376315 -0.481779
-0.390233 0.519916 0.389615
-0.375355 -0.488489 0.434519
0.49165 -0.453612 0.422497
-0.431294 0.43789 0.52196
-0.42049 0.464224 -0.524278
-0.44343 0.50579 0.433351
-0.434157 -0.519701 0.426712
0.500703 -0.393634 0.42499
-0.502825 -0.419487 0.423098
-0.424478 0.448874 0.505174
-0.422201 0.477181 -0.511633
-0.402234 0.513133 0.452909
-0.411755 -0.514737 0.475539
0.479688 -0.455542 0.456435
-0.520949 -0.442216 0.474823
-0.42425 0.41634 0.500083
-0.436191 0.432967 -0.478067
-0.428581 0.47868 0.4406
-0.438332 -0.525315 0.494521
0.531625 -0.405179 0.439369
-0.488956 -0.444481 0.469168
-0.453523 0.466472 0.474221
-0.443393 0.511124 -0.492578
-0.40383 0.493188 0.449759
-0.448848 -0.513177 0.462898
0.504608 -0.445896 0.454019
-0.50835 -0.435185 0.479776
-0.416074 0.459515 0.502059
-0.418843 0.481357 -0.482231
-0.444263 0.522431 0.472058
-0.448756 -0.51625 0.492196
0.503904 -0.429193 0.474799
-0.523705 -0.450606 0.517138
-0.413715 0.521645 0.482589
-0.437403 0.517935 -0.48827
-0.379159 0.523058 0.499746
-0.436654 -0.486214 0.488862
0.471416 -0.456626 0.517161
-0.522996 -0.440634 0.502446
-0.394676 0.527816 0.497189
-0.474045 0.499427 -0.526119
-0.43232 0.498128 0.468683
-0.445123 -0.484602 0.526986
0.493242 -0.439451 0.477869
-0.498637 -0.428858 0.497246
-0.442458 -0.493882 0.4893
-0.428404 -0.512805 -0.512193
-0.428502 0.509788 -0.514496
-0.408405 -0.50074 -0.5094
0.510985 -0.391907 -0.490156
-0.493754 -0.403289 -0.484367
-0.464464 -0.467105 0.484288
-0.414835 0.513974 -0.469852
-0.380354 -0.463684 -0.458294
0.47272 -0.43451 -0.47668
-0.489943 -0.407601 -0.516661
-0.440081 -0.49509 0.497624
-0.429568 -0.47139 -0.507552
-0.441257 0.461285 -0.460198
-0.386609 -0.503081 -0.451969
0.456651 -0.397136 -0.511349
-0.499231 -0.476416 -0.478667
-0.397056 -0.487024 0.518255
-0.418576 -0.467868 -0.519604
-0.40773 0.525268 -0.459753
-0.416035 -0.471463 -0.488509
0.521001 -0.446692 -0.457337
-0.492343 -0.401124 -0.467818
-0.391615 -0.443561 0.477654
-0.418196 0.502997 -0.465345
-0.433401 -0.505413 -0.454764
0.485155 -0.425729 -0.468036
-0.502118 -0.388875 -0.470345
-0.449649 -0.443359 0.484394
-0.395007 -0.446358 -0.481207
-0.382319 0.475579 -0.459798
-0.422625 -0.527638 -0.429558
0.47223 -0.448507 -0.445934
-0.399996 -0.447762 0.502076
-0.421159 -0.411893 -0.459834
-0.423954 0.530246 -0.428256
-0.437877 -0.472346 -0.449885
0.481868 -0.415549 -0.432601
-0.521746 -0.423805 -0.431545
-0.431528 -0.414397 0.485751
-0.42173 -0.452145 -0.49098
-0.450964 -0.495356 -0.405018
0.515265 -0.41634 -0.423494
-0.413409 -0.396982 0.500224
-0.444776 -0.47094 -0.499542
-0.429349 -0.525601 -0.412517
0.483815 -0.397404 -0.428601
-0.489492 -0.434514 -0.39808
-0.404343 -0.419483 0.500901
-0.403882 -0.400371 -0.47
-0.418363 0.507406 -0.416107
-0.434155 -0.528379 -0.407375
-0.514529 -0.456314 -0.394485
-0.424467 -0.415631 0.491809
-0.393123 -0.404585 -0.499202
-0.420446 0.497717 -0.421368
-0.399259 -0.498591 -0.439705
0.520456 -0.398127 -0.423933
-0.396288 -0.412663 0.49963
-0.437121 -0.419994 -0.485397
-0.412146 0.517201 -0.369622
-0.419245 -0.4904 -0.385781
0.491282 -0.423595 -0.388796
-0.500568 -0.387293 -0.377734
-0.41444 -0.382801 0.488587
-0.403293 -0.377393 -0.477361
-0.43088 0.527824 -0.367937
-0.417252 -0.519667 -0.367731
0.498328 -0.434824 -0.363003
-0.50341 -0.409045 -0.368585
-0.409635 -0.373029 0.489552
-0.388773 0.521102 -0.36096
-0.386756 -0.509083 -0.366692
0.511115 -0.40246 -0.362244
-0.518004 -0.416742 -0.371683
-0.387314 -0.400934 0.494232
-0.410756 -0.347605 -0.464881
-0.396112 0.497951 -0.361345
-0.401249 -0.508497 -0.358623
-0.471095 -0.439597 -0.372938
-0.4252 -0.321244 0.478513
-0.435846 -0.355417 -0.470651
-0.401591 0.532083 -0.333872
0.453451 -0.39263 -0.334503
-0.450942 -0.392326 -0.354019
0.511049 -0.43512 -0.284895
-0.485079 -0.408364 -0.341624
-0.43768 -0.324688 0.477905
0.507986 -0.416848 -0.324043
-0.505697 -0.430215 -0.347305
-0.399155 -0.33029 0.518485
-0.432077 -0.342325 -0.527284
-0.444313 0.489859 -0.312053
-0.517009 -0.437147 -0.322356
-0.423408 -0.288794 -0.474128
-0.440288 -0.500111 -0.318467
-0.494216 -0.413074 -0.321932
-0.426214 -0.296341 -0.514767
0.485954 -0.422437 -0.314335
-0.406819 -0.506342 -0.316961
0.496345 -0.444528 -0.310348
-0.425516 -0.272213 -0.519873
-0.419555 0.509689 -0.278373
-0.39298 -0.489085 -0.287168
0.476918 -0.432957 -0.287501
-0.51455 -0.451589 -0.281837
-0.431383 -0.29847 0.495082
-0.430731 -0.249544 -0.495063
0.503494 -0.481815 -0.293979
-0.471553 -0.403436 -0.299199
-0.439073 0.478294 -0.236887
-0.411658 -0.484542 -0.240874
-0.412413 -0.204088 0.476596
-0.470492 -0.390077 -0.255375
-0.421181 -0.254298 0.456168
-0.440599 -0.241647 -0.526245
0.528499 -0.381412 -0.233372
-0.365572 -0.192044 0.503358
-0.404797 -0.206372 0.469129
-0.420029 0.461016 -0.229812
-0.528243 -0.42397 -0.190993
-0.42691 -0.224233 0.483692
0.525735 -0.445919 -0.188201
-0.463111 0.476388 -0.190581
-0.426987 -0.189551 0.508392
-0.409516 0.467692 -0.192949
-0.428277 -0.165656 -0.491542
-0.427563 0.496456 -0.129459
-0.411411 -0.136106 -0.484618
-0.415442 0.495729 -0.149037
-0.411035 -0.486733 -0.184537
-0.487139 -0.428462 -0.160559
-0.421576 -0.139049 0.485317
-0.455283 -0.158739 -0.511288
-0.448244 -0.132617 0.455619
0.504407 -0.424569 -0.133137
-0.432043 -0.0874231 -0.489486
-0.422699 0.521773 -0.105251
0.539491 -0.41725 -0.0724263
-0.43145 -0.0688846 0.506251
-0.507098 -0.429353 -0.0455086
-0.402881 -0.0836123 0.489086
-0.38108 -0.112399 -0.492563
-0.400825 -0.496392 -0.0592467
-0.428204 -0.101768 0.536133
-0.437969 -0.0825951 -0.527496
-0.430821 -0.0803322 -0.51422
-0.403999 -0.479361 -0.0460521
-0.488844 -0.445475 -0.0212709
-0.390773 -0.512661 -0.0142593
-0.387248 -0.516148 -0.00907456
-0.448152 0.00181868 0.466748
-0.37374 0.0162275 -0.544132
0.535804 -0.415654 0.0662766
-0.4035 0.0989332 -0.487352
-0.47194 -0.449927 0.093703
-0.451395 0.121806 -0.495238
-0.409307 -0.504098 0.0736605
-0.446507 -0.479139 0.127508
-0.415346 0.112414 0.515416
-0.418115 0.48516 0.130252
0.4987 -0.39958 0.0742692
-0.492841 -0.439783 0.0786161
-0.434509 -0.501337 0.089185
0.487665 -0.459665 0.123669
-0.526395 -0.403872 0.117923
-0.43949 0.143673 -0.487067
-0.422257 0.537588 0.13778
-0.401318 0.157044 0.504316
0.515349 -0.411991 0.142741
0.521577 -0.420946 0.148913
-0.494096 -0.430497 0.143656
0.488392 -0.406408 0.217017
-0.407395 0.151649 0.456693
-0.413192 0.490052 0.197999
-0.423607 0.244605 0.534505
-0.422426 0.220377 -0.501812
-0.430363 -0.536797 0.195027
0.489977 -0.433503 0.211883
-0.411687 0.200424 0.526928
-0.403408 -0.452393 0.225393
0.530671 -0.420833 0.194435
-0.501459 -0.429352 0.208242
-0.411804 0.273495 0.463306
-0.423274 0.217923 -0.498761
-0.47526 -0.42069 0.239087
-0.4547 0.237613 -0.489694
-0.383038 0.244541 -0.519591
-0.387637 0.512351 0.268473
-0.391717 -0.515137 0.259152
-0.392884 0.266924 0.493051
-0.412567 0.236893 -0.496722
-0.395406 0.506884 0.297984
-0.408652 0.303145 0.512143
-0.407885 0.502379 0.309856
-0.384327 -0.446035 0.264834
0.465188 -0.37953 0.259089
-0.392583 0.303149 0.51319
0.474784 -0.438381 0.271097
-0.424219 0.477814 0.280171
-0.437618 -0.458203 0.280006
0.506683 -0.45013 0.304122
-0.514226 -0.404077 0.301664
-0.424714 0.259697 0.520874
-0.381299 0.508388 0.308722
0.521455 -0.404495 0.281899
-0.510831 -0.405348 0.276809
-0.456635 0.309189 0.512861
-0.402731 0.295059 -0.516684
-0.431732 0.468466 0.319296
0.532153 -0.430419 0.32677
-0.419126 -0.46189 0.318157
-0.480347 -0.414737 0.289
-0.43689 0.339941 0.477192
-0.422778 0.29445 -0.527756
-0.435551 0.521115 0.324863
0.476393 -0.40564 0.338267
-0.508487 -0.425606 0.33159
-0.426964 0.307243 -0.50255
-0.442666 0.494247 0.380139
-0.429358 -0.494331 0.356942
0.48788 -0.431359 0.337106
-0.53117 -0.428997 0.35924
-0.424439 0.337748 0.521699
-0.420927 0.336359 -0.494558
-0.410688 0.521698 0.320631
-0.41056 -0.516361 0.370665
0.476442 -0.436839 0.302815
-0.497456 -0.409752 0.360648
-0.434087 0.338248 -0.496156
-0.423692 0.505451 0.343563
-0.440794 -0.485707 0.355338
0.515954 -0.437037 0.396998
-0.512836 -0.411971 0.368967
-0.419899 0.35977 0.497292
-0.445602 0.388343 -0.519593
-0.447036 0.480303 0.36908
-0.421598 -0.50954 0.374563
-0.519531 -0.406372 0.355739
-0.421123 0.39285 0.506316
-0.424926 0.358854 -0.517118
-0.423202 -0.508071 0.357097
0.50487 -0.420433 0.372165
-0.508748 -0.40683 0.395508
-0.435084 0.384751 0.517867
-0.430413 0.441084 -0.457163
-0.437423 0.527422 0.412182
-0.397698 0.421183 0.501302
-0.387886 0.373041 -0.504859
-0.407091 0.490835 0.416525
-0.420142 -0.515535 0.428014
0.496128 -0.432079 0.38143
-0.537662 -0.411248 0.400663
-0.419784 0.405934 -0.526153
-0.455044 -0.502857 0.408228
0.481919 -0.43492 0.3865
-0.49402 -0.416488 0.379432
-0.446172 0.391634 0.507879
-0.442235 0.407037 -0.491425
-0.480061 0.524322 0.417632
0.48413 -0.438452 0.436051
-0.477424 -0.394258 0.41694
-0.435636 0.458674 0.499321
-0.403589 0.447431 -0.509426
-0.43397 0.502808 0.445435
-0.460344 -0.489991 0.446557
0.496101 -0.393454 0.411039
-0.541184 -0.419044 0.424329
-0.394054 0.451385 0.500305
-0.411417 0.465022 -0.506623
-0.410643 0.488211 0.433341
-0.509266 -0.405486 0.400327
-0.423909 0.468176 0.498043
-0.449857 0.464731 -0.465875
-0.439479 0.498694 0.433519
-0.412373 -0.531366 0.437178
0.510619 -0.458947 0.471302
-0.496735 -0.435127 0.4459
-0.4056 0.420218 0.4834
-0.424073 0.482829 -0.490856
-0.42267 0.532704 0.465406
-0.370896 -0.496974 0.460755
0.503937 -0.422294 0.480789
-0.500405 -0.423785 0.460154
-0.441532 0.452417 0.513255
-0.440415 0.466607 -0.490892
-0.390908 0.503778 0.44721
-0.413936 -0.49524 0.484713
0.480468 -0.431597 0.45673
-0.513511 -0.399413 0.453938
-0.393673 0.486477 0.527929
-0.413593 0.448062 -0.523518
-0.403376 0.521167 0.487546
-0.422688 -0.515078 0.481203
0.511813 -0.422419 0.500906
-0.526307 -0.404684 0.473558
-0.463174 0.487849 0.476162
-0.414274 0.506016 -0.461756
-0.433625 0.484576 0.500607
-0.444175 -0.495031 0.510383
0.522581 -0.373112 0.509627
-0.498778 -0.426631 0.466619
-0.422281 0.514293 0.476365
-0.430833 0.515029 -0.502453
-0.436454 0.51009 0.482368
-0.424384 -0.511968 0.519543
0.479113 -0.41482 0.500209
-0.528044 -0.433902 0.476931
-0.383554 -0.532631 0.485667
-0.390951 -0.484811 -0.471143
-0.412655 0.481549 -0.497378
-0.413401 -0.500204 -0.522986
0.494338 -0.389208 -0.487118
-0.502655 -0.392529 -0.502189
-0.43662 -0.464134 0.481078
-0.445628 0.452252 -0.479419
-0.396882 -0.503765 -0.495925
0.503514 -0.407495 -0.506082
-0.49799 -0.399484 -0.505781
-0.387206 -0.485632 0.52462
-0.391066 -0.472241 -0.486588
-0.387106 0.489658 -0.460222
-0.432231 -0.537506 -0.481812
0.469508 -0.40351 -0.486025
-0.496144 -0.380582 -0.49441
-0.374713 -0.494613 -0.484841
-0.410158 0.483413 -0.477482
-0.397291 -0.489033 -0.481531
0.485625 -0.396729 -0.450275
-0.393927 -0.428332 0.519481
-0.391514 -0.46357 -0.525863
-0.375147 0.529814 -0.458525
-0.414272 -0.482777 -0.439188
0.508743 -0.388985 -0.481865
-0.424397 -0.447021 0.500888
-0.409075 -0.45035 -0.500655
-0.405991 0.499735 -0.42643
-0.431268 -0.495233 -0.454942
-0.381661 -0.457174 0.510675
-0.409829 -0.414341 -0.537868
