ply
format ascii 1.0
comment sampling resolution: 0.01
comment noise level: 0.04
comment Created by Open3D
element vertex 1709
property double x
property double y
property double z
end_header
0.480043 0.185273 0.383415
-0.510348 0.158209 0.423931
0.21897 0.439924 0.530177
0.18778 0.3768 -0.502159
0.16406 0.524503 0.330411
0.145557 -0.513809 0.438223
0.489761 0.104943 0.402484
-0.529965 0.238589 0.414771
0.14875 0.452202 0.4473
0.13031 0.396646 -0.458616
0.214954 0.468906 0.369305
0.147376 -0.546774 0.435439
0.527283 0.131347 0.443497
-0.478117 0.165024 0.420384
0.134688 0.373661 0.506896
0.185309 0.441533 -0.542578
0.22895 0.504508 0.414832
0.190566 -0.463334 0.423891
0.387389 0.168102 0.461281
-0.461244 0.181098 0.401264
0.110223 0.389426 0.536619
0.248004 0.424402 -0.553341
0.262702 0.551893 0.443805
0.150364 -0.432137 0.552037
0.51416 0.229326 0.450645
-0.540635 0.0973179 0.356484
0.173292 0.447914 0.501063
0.212353 0.399296 -0.516221
0.154307 0.494873 0.402942
0.123458 -0.467691 0.465247
0.575705 0.116273 0.442585
-0.476847 0.153397 0.446576
0.160847 0.408784 0.532557
0.131704 0.478945 -0.501074
0.1924 0.550195 0.469749
0.12615 -0.497626 0.557558
0.510187 0.104083 0.47622
-0.576488 0.157286 0.459783
0.147085 0.463869 0.524968
0.180741 0.459111 -0.522425
0.119237 0.589601 0.508761
0.102254 -0.506717 0.443943
0.529684 0.130134 0.511324
-0.527737 0.0824526 0.456324
0.128164 0.497756 0.477998
0.180042 0.510716 -0.493253
0.178727 0.412344 0.451917
0.229208 -0.527127 0.535945
0.474452 0.0537959 0.404124
-0.541971 0.0799022 0.474935
0.136665 0.46225 0.514996
0.181985 0.500593 -0.487331
0.140788 0.470026 0.492262
0.168402 -0.510511 0.438805
0.555353 0.152404 0.472063
-0.559268 0.174731 0.485125
0.171304 0.512608 0.430984
0.110352 0.539158 -0.464346
0.198392 0.512084 0.51284
0.10823 -0.426992 0.501251
0.496027 0.186013 0.532874
-0.525996 0.180714 0.504891
0.114084 -0.478902 0.525539
0.185373 -0.46736 -0.478223
0.138803 0.394182 -0.495777
0.210512 -0.497677 -0.530896
0.511627 0.186657 -0.480872
-0.535365 0.143677 -0.538421
0.288005 -0.491554 0.539825
0.218101 -0.509405 -0.495834
0.160669 0.533976 -0.501381
0.0818461 -0.513204 -0.406205
0.527549 0.213726 -0.448883
-0.514869 0.223772 -0.546032
0.207599 -0.409666 0.543625
0.0918932 -0.468937 -0.510713
0.169141 0.511391 -0.517571
0.134821 -0.476407 -0.438757
0.457489 0.183052 -0.446211
-0.492146 0.227468 -0.477855
0.141293 -0.444549 0.511157
0.150643 -0.453397 -0.465674
0.189264 0.532611 -0.428202
0.239739 -0.468213 -0.438563
0.519507 0.139423 -0.465596
-0.498379 0.190097 -0.407395
0.0643626 -0.45517 0.485256
0.181615 -0.4437 -0.560519
0.116823 0.448394 -0.373531
0.207703 -0.485834 -0.392381
0.489729 0.0948062 -0.4714
-0.468477 0.153776 -0.455312
0.184479 -0.46665 0.570469
0.191334 -0.4675 -0.540011
0.143183 0.548972 -0.473969
0.179742 -0.469779 -0.474458
0.517443 0.235163 -0.432062
-0.493112 0.128009 -0.452032
0.204984 -0.458509 0.526295
0.152853 -0.436948 -0.516152
0.161569 0.466281 -0.417696
0.162632 -0.486661 -0.4309
0.472903 0.177036 -0.399743
-0.506179 0.165064 -0.445297
0.157422 -0.388906 0.485278
0.164056 -0.424896 -0.556778
0.175943 0.493608 -0.473513
0.148949 -0.533594 -0.472363
0.487398 0.173006 -0.445793
-0.574277 0.077295 -0.450196
0.14173 -0.435002 0.537303
0.255716 -0.371228 -0.524195
0.143246 0.431145 -0.404316
0.10672 -0.569496 -0.46636
0.499315 0.18667 -0.440068
-0.557758 0.191594 -0.405912
0.152169 -0.401674 0.532015
0.182126 -0.382297 -0.470603
0.117131 0.536234 -0.452158
0.21478 -0.459028 -0.453025
0.513779 0.148426 -0.379425
-0.498641 0.215255 -0.333154
0.241347 -0.373441 0.454426
0.133407 -0.384816 -0.503547
0.110971 0.456981 -0.439577
0.126203 -0.51189 -0.457408
0.48486 0.158723 -0.378334
-0.524952 0.165809 -0.374053
0.173569 -0.404998 0.523959
0.190719 -0.369253 -0.453226
0.11305 0.488027 -0.460827
0.120925 -0.520561 -0.379138
0.40853 0.217937 -0.493129
-0.456542 0.200523 -0.395185
0.229525 -0.48095 0.508855
0.172717 -0.302578 -0.537538
0.118726 0.491413 -0.34654
0.136484 -0.493477 -0.397056
0.506123 0.162486 -0.389323
-0.569877 0.169882 -0.419779
0.200355 -0.393665 0.539512
0.138374 -0.39005 -0.459092
0.213687 0.489711 -0.455952
0.119238 -0.464193 -0.416232
0.454518 0.190024 -0.419332
-0.518534 0.184354 -0.350881
0.150611 -0.390067 0.521397
0.212109 -0.385351 -0.489475
0.189835 0.470817 -0.407058
0.11313 -0.569151 -0.397089
0.418399 0.159561 -0.333785
-0.570216 0.110168 -0.427618
0.134197 -0.317269 0.522756
0.168809 -0.338708 -0.457009
0.251203 0.475044 -0.35331
0.194988 -0.531032 -0.385478
0.569956 0.204655 -0.332105
-0.497994 0.177119 -0.338238
0.157856 -0.406865 0.471615
0.143602 -0.350969 -0.575164
0.186176 0.498275 -0.405353
0.148158 -0.517176 -0.383098
0.556575 0.237823 -0.366012
-0.504348 0.2348 -0.410642
0.185399 -0.289296 0.494771
0.213083 -0.345432 -0.474584
0.146269 0.514216 -0.399426
0.188681 -0.506012 -0.254528
0.532144 0.12402 -0.397657
-0.546283 0.179801 -0.404319
0.100514 -0.286537 0.485143
0.0524849 -0.344557 -0.504738
0.271916 0.484465 -0.340909
0.0829944 -0.531693 -0.341572
0.486028 0.119576 -0.306359
-0.505778 0.242218 -0.313623
0.169991 -0.291484 0.525407
0.113998 -0.302165 -0.485822
0.116381 0.468995 -0.350875
0.173982 -0.425446 -0.321462
0.509024 0.196911 -0.344228
-0.505507 0.262985 -0.286328
0.146691 -0.253564 0.541311
0.205111 -0.248008 -0.520664
0.140469 0.497637 -0.282928
0.168794 -0.471583 -0.280001
0.506638 0.178293 -0.332685
-0.489057 0.139739 -0.293876
0.200607 -0.315858 0.461437
0.166814 -0.247014 -0.474026
0.159911 0.544879 -0.260881
0.113458 -0.505507 -0.250971
0.389764 0.203231 -0.319819
-0.534771 0.190531 -0.209813
0.126503 -0.336687 0.520989
0.214663 -0.250787 -0.55484
0.178699 0.463401 -0.323352
0.125144 -0.53829 -0.284569
0.482211 0.119353 -0.284898
-0.500432 0.14145 -0.256321
0.188002 -0.297088 0.500368
0.202476 -0.173238 -0.583116
0.221219 0.613692 -0.255213
0.228617 -0.483958 -0.266391
0.526172 0.204461 -0.270867
-0.546517 0.14621 -0.307246
0.16574 -0.308364 0.525379
0.1609 -0.253013 -0.48071
0.143583 0.516845 -0.204579
0.176355 -0.479506 -0.241233
0.481822 0.192961 -0.194435
-0.517759 0.151485 -0.254794
0.256347 -0.274088 0.469891
0.171129 -0.228022 -0.496461
0.153323 0.415793 -0.26583
0.17364 -0.484719 -0.241237
0.500992 0.209603 -0.200074
-0.461624 0.243626 -0.257618
0.14893 -0.239842 0.482121
0.179619 -0.244176 -0.449055
0.152691 0.483123 -0.232538
0.205803 -0.520052 -0.254259
0.504588 0.167553 -0.210025
-0.534109 0.123996 -0.178511
0.179059 -0.230995 0.489699
0.0647239 -0.175048 -0.497877
0.199471 0.450568 -0.262074
0.1803 -0.556108 -0.223137
0.535296 0.196996 -0.211842
-0.573885 0.105289 -0.220714
0.220039 -0.234182 0.524378
0.163105 -0.194044 -0.500985
0.222826 0.500797 -0.180507
0.134271 -0.548983 -0.21701
0.521741 0.16845 -0.186053
-0.526015 0.103242 -0.216178
0.113895 -0.239769 0.542125
0.173492 -0.178882 -0.51967
0.134209 0.511921 -0.180519
0.243394 -0.570713 -0.229708
0.466161 0.223545 -0.254128
-0.495463 0.116109 -0.189283
0.226718 -0.241812 0.56279
0.150208 -0.174221 -0.427447
0.188337 0.495142 -0.203184
0.148762 -0.518369 -0.14651
0.501753 0.110841 -0.219131
-0.449928 0.160059 -0.219022
0.0950138 -0.133211 0.503924
0.122016 -0.135886 -0.54813
0.163182 0.415326 -0.182
0.148741 -0.517331 -0.113986
0.481045 0.176522 -0.171139
-0.441786 0.170583 -0.284133
0.195897 -0.192145 0.50867
0.15982 -0.241551 -0.512342
0.195853 0.531073 -0.213974
0.158335 -0.468973 -0.219288
0.510051 0.0894624 -0.144215
-0.461937 0.216498 -0.145902
0.134343 -0.188047 0.595191
0.12108 -0.179269 -0.532025
0.21919 0.45641 -0.117705
0.109759 -0.459037 -0.226209
0.516754 0.185774 -0.15927
-0.537213 0.172291 -0.169622
0.0969247 -0.183713 0.497056
0.145208 -0.1944 -0.570202
0.192262 0.539437 -0.114879
0.17592 -0.513122 -0.178655
0.554568 0.0962303 -0.16048
-0.465564 0.170468 -0.197048
0.250256 -0.204336 0.479786
0.222626 -0.124793 -0.559024
0.208072 0.478731 -0.0902481
0.145925 -0.478957 -0.123387
0.523295 0.114334 -0.133007
-0.505451 0.177831 -0.166962
0.193753 -0.0942792 0.569837
0.221876 -0.128824 -0.493712
0.201857 0.452723 -0.123942
0.131502 -0.495597 -0.14727
0.53134 0.153066 -0.237633
-0.503449 0.127475 -0.201259
0.155615 -0.0410731 0.484741
0.122963 -0.130993 -0.4645
0.218121 0.460759 -0.164998
0.182961 -0.49687 -0.100473
0.473779 0.180468 -0.167658
-0.479754 0.0853747 -0.149691
0.22582 -0.120682 0.443171
0.118162 -0.0739804 -0.490454
0.110467 0.510522 -0.0637014
0.0897378 -0.43806 -0.144584
0.505965 0.200287 -0.184474
-0.470559 0.189313 -0.105133
0.143995 -0.0936207 0.476376
0.119717 -0.0060013 -0.497524
0.182341 0.546839 -0.131949
0.147078 -0.506665 -0.152015
0.494465 0.140486 -0.0384351
-0.550165 0.137779 -0.0990183
0.187629 -0.0501626 0.491963
0.232804 -0.133932 -0.509267
0.121703 0.541757 -0.0866868
0.204802 -0.446941 -0.100338
0.527908 0.243456 -0.104236
-0.45489 0.137354 -0.120241
0.0854746 -0.0541616 0.513359
0.224902 -0.105127 -0.522977
0.196252 0.505979 -0.0955201
0.175438 -0.50728 -0.104737
0.417803 0.130648 -0.112116
-0.500399 0.164913 -0.0987986
0.173637 -0.0677543 0.499354
0.170972 -0.0982715 -0.496788
0.181092 0.485604 -0.138969
0.183583 -0.468674 -0.0479771
0.506631 0.163276 -0.134959
-0.4418 0.200727 -0.00240086
0.135197 -0.120493 0.478839
0.145937 -0.085059 -0.49583
0.161504 0.487236 -0.0629613
0.220126 -0.494007 -0.0819884
0.566869 0.150296 -0.0934187
-0.443359 0.202228 -0.09034
0.162629 -0.0431064 0.511874
0.114293 -0.0186666 -0.536133
0.115503 0.556918 -0.0463959
0.152169 -0.434015 -0.0851255
0.507816 0.243276 -0.063123
-0.457848 0.151563 -0.0429834
0.233453 -0.0504937 0.535883
0.15034 -0.0710157 -0.483301
0.207874 0.483882 -0.0383815
0.173119 -0.557854 -0.0258473
0.530252 0.180449 -0.0942527
-0.47361 0.191057 -0.0208511
0.226859 -0.0899098 0.497245
0.197651 -0.0232984 -0.508888
0.232175 0.531014 -0.0837221
0.173012 -0.473151 0.0283441
0.519777 0.234471 -0.0119782
-0.495658 0.154253 -0.0524021
0.165714 -0.0551467 0.496019
0.182717 -0.0510737 -0.514569
0.143056 0.494935 -0.00128187
0.131726 -0.49854 -0.0669166
0.525113 0.126621 -0.0241599
-0.404765 0.180112 -0.0381783
0.16211 -0.0797951 0.465038
0.141227 -0.0258958 -0.535303
0.163372 0.453224 0.0470795
0.124154 -0.509092 0.00873645
0.49289 0.122071 -0.00557621
-0.572381 0.219713 -0.0374766
0.200807 -0.0385394 0.577133
0.151655 -0.0534357 -0.508765
0.173824 0.415303 0.0195691
0.154785 -0.526043 0.0550325
0.4339 0.135905 -0.028979
-0.460237 0.141818 -0.0469796
0.206469 0.0102896 0.585353
0.143864 0.0117582 -0.469365
0.1046 0.49218 -0.00835393
0.159401 -0.519956 0.0678664
0.505766 0.106637 0.000474265
-0.443852 0.182547 -0.0552082
0.130327 0.0781496 0.424888
0.0902555 0.0827897 -0.531277
0.13289 0.514514 -0.0157864
0.194991 -0.560395 -0.021438
0.471027 0.124392 0.000502675
-0.490657 0.164899 -0.0123503
0.27112 0.0337282 0.470796
0.101646 0.0302417 -0.412933
0.158043 0.519408 0.0909225
0.197456 -0.472181 0.00476896
0.517824 0.216297 -0.0133271
-0.506278 0.225098 0.0073831
0.237964 0.0452716 0.544157
0.149513 0.0182839 -0.446263
0.126179 0.586258 0.0175953
0.163368 -0.551266 0.0259986
0.492589 0.130573 0.0173274
-0.485842 0.200914 -0.0454963
0.184521 0.0308395 0.569156
0.247641 -0.0287562 -0.49532
0.188913 0.481795 0.100663
0.155906 -0.436978 0.035388
0.431362 0.197373 0.0746986
-0.492348 0.188808 0.104403
0.12728 0.0880088 0.48197
0.224636 0.0501256 -0.469214
0.186568 0.469874 0.125019
0.165129 -0.483307 0.0638833
0.519402 0.138036 0.0345061
-0.477168 0.149867 0.084544
0.179956 0.0425267 0.49779
0.116294 0.0414531 -0.522565
0.15048 0.515131 0.0736918
0.203615 -0.480676 0.0450605
0.510267 0.22797 0.134095
-0.50406 0.114881 0.0551315
0.203404 0.00776915 0.514909
0.165177 0.0211326 -0.54416
0.13262 0.481451 0.120657
0.203556 -0.466885 0.0484193
0.526259 0.139983 0.110146
-0.479953 0.197024 0.10268
0.121274 0.047853 0.500404
0.190362 0.0853186 -0.555131
0.145712 0.416693 0.0322152
0.146851 -0.44334 0.0874946
0.502743 0.207268 0.118889
-0.518398 0.0991762 0.130007
0.200623 0.071038 0.561084
0.171328 0.110417 -0.512935
0.170508 0.497284 0.0574625
0.145673 -0.569508 0.196474
0.430033 0.133664 0.0371794
-0.602127 0.207567 0.114838
0.174505 0.0595982 0.44489
0.193815 0.120344 -0.515066
0.149043 0.471022 0.164479
0.173965 -0.531821 0.185329
0.511652 0.132786 0.120387
-0.524104 0.159675 0.110505
0.219114 0.163429 0.455847
0.196447 0.119547 -0.470073
0.147869 0.544683 0.134761
0.205504 -0.465716 0.107769
0.512292 0.1222 0.143136
-0.552637 0.191758 0.177283
0.236593 0.200459 0.465131
0.173001 0.106674 -0.465958
0.218619 0.4468 0.0611214
0.149752 -0.503918 0.0415475
0.517347 0.169347 0.0941292
-0.462898 0.176677 0.128641
0.155825 0.190725 0.510286
0.182033 0.136009 -0.479457
0.115001 0.459329 0.103106
0.116879 -0.461759 0.129204
0.486053 0.165684 0.158652
-0.485215 0.151452 0.0848731
0.128294 0.153736 0.563273
0.161924 -0.00731387 -0.438606
0.147907 0.4494 0.166334
0.184028 -0.544067 0.0828833
0.496707 0.13363 0.0754968
-0.510043 0.119912 0.178052
0.129141 0.0936237 0.548736
0.137608 0.125809 -0.526448
0.120399 0.510412 0.18642
0.134128 -0.537596 0.143417
0.502763 0.183827 0.0959299
-0.485914 0.183611 0.235212
0.192801 0.170758 0.473896
0.201102 0.119422 -0.527752
0.0885489 0.481524 0.188349
0.0703823 -0.527325 0.15363
0.433003 0.178318 0.18535
-0.466677 0.194718 0.15053
0.168913 0.285562 0.488758
0.134817 0.155202 -0.520934
0.176989 0.469848 0.13837
0.111465 -0.508748 0.143378
0.431647 0.149886 0.212766
-0.48996 0.202573 0.223293
0.114383 0.186407 0.556559
0.203011 0.187664 -0.518041
0.221203 0.47397 0.149889
0.142684 -0.374666 0.249827
0.465004 0.192408 0.187964
-0.504497 0.0761648 0.150659
0.193949 0.159816 0.513089
0.149308 0.184278 -0.41449
0.180174 0.45066 0.17249
0.144764 -0.558656 0.190982
0.582324 0.209693 0.262718
-0.554629 0.115013 0.234449
0.168168 0.224015 0.423554
0.214217 0.293004 -0.494659
0.231882 0.496865 0.182362
0.153903 -0.52682 0.192092
0.543791 0.197933 0.22326
-0.473268 0.213624 0.277172
0.152478 0.216848 0.485209
0.24657 0.253399 -0.52665
0.0969048 0.480899 0.172913
0.152702 -0.541481 0.173983
0.476216 0.153003 0.246426
-0.503885 0.195544 0.199518
0.200408 0.291735 0.495423
0.18495 0.271908 -0.475363
0.119724 0.508684 0.147216
0.249749 -0.502325 0.194496
0.555221 0.200539 0.199319
-0.464915 0.174733 0.263315
0.148703 0.144954 0.533795
0.129271 0.270687 -0.526177
0.115293 0.453284 0.198603
0.064047 -0.55894 0.192353
0.473193 0.122451 0.19202
-0.389254 0.137443 0.268073
0.186361 0.271504 0.473616
0.178429 0.230711 -0.535334
0.14338 0.459455 0.274988
0.13008 -0.494174 0.26831
0.511373 0.101292 0.228336
-0.491107 0.230223 0.240051
0.158863 0.213684 0.499733
0.110905 0.212098 -0.528008
0.148328 0.483761 0.234218
0.223229 -0.538753 0.289905
0.530756 0.16007 0.270649
-0.479223 0.108583 0.259944
0.214495 0.282393 0.467323
0.245755 0.230041 -0.491467
0.233093 0.525124 0.250235
0.160503 -0.53015 0.289032
0.466671 0.118583 0.274659
-0.53684 0.175192 0.244759
0.191504 0.229311 0.47234
0.120898 0.229587 -0.493036
0.173181 0.502028 0.316769
0.210028 -0.490694 0.295535
0.50683 0.209502 0.301417
-0.512898 0.127276 0.277463
0.089267 0.295144 0.484842
0.130596 0.249348 -0.540974
0.128473 0.52118 0.229349
0.175805 -0.496259 0.301928
0.501898 0.109774 0.371829
-0.467747 0.141686 0.331002
0.184025 0.308907 0.53303
0.11097 0.307016 -0.556298
0.192821 0.459649 0.290224
0.155011 -0.463533 0.269662
0.478373 0.186458 0.260086
-0.438257 0.203272 0.342284
0.113178 0.338452 0.496732
0.147928 0.319329 -0.536131
0.157043 0.447867 0.280435
0.187487 -0.497196 0.300394
0.47207 0.125442 0.327444
-0.568806 0.0887501 0.302235
0.215732 0.322604 0.457836
0.167651 0.275978 -0.560411
0.185259 0.49847 0.289833
0.211605 -0.569982 0.309093
0.456728 0.0740609 0.38413
-0.556615 0.249626 0.312651
0.0965696 0.254421 0.427245
0.179676 0.310142 -0.512804
0.245003 0.484512 0.361064
0.165007 -0.53276 0.312773
0.563635 0.16721 0.372757
-0.458818 0.190758 0.362639
0.151174 0.392881 0.504037
0.178612 0.320483 -0.511688
0.132811 0.59485 0.355042
0.197433 -0.577241 0.351816
0.452297 0.112327 0.37722
-0.490702 0.126807 0.287763
0.216544 0.37658 0.461587
0.142244 0.426657 -0.502923
0.210557 0.497331 0.381727
0.263623 -0.544442 0.403732
0.514407 0.0738357 0.346436
-0.543838 0.14976 0.350538
0.19761 0.288617 0.562133
0.200482 0.420536 -0.466674
0.175403 0.524453 0.376453
0.181028 -0.493541 0.385815
0.519626 0.127826 0.346929
-0.471226 0.199175 0.361462
0.15014 0.381826 0.441112
0.165045 0.336922 -0.462539
0.217622 0.441982 0.305529
0.0843987 -0.448092 0.30633
0.449898 0.174646 0.34749
-0.485148 0.162337 0.383671
0.137304 0.319351 0.617909
0.156439 0.418489 -0.480405
0.221555 0.488621 0.371606
0.100607 -0.532578 0.405438
0.499177 0.177569 0.399928
-0.554761 0.192259 0.310349
0.159751 0.430054 0.558045
0.201853 0.40024 -0.484679
0.194869 0.509457 0.440226
0.188491 -0.434031 0.399325
0.456911 0.170627 0.276802
-0.538966 0.166611 0.349291
0.22553 0.375931 0.465229
0.177906 0.356829 -0.540635
0.150236 0.483499 0.391551
0.115204 -0.473108 0.393619
0.507342 0.183623 0.425946
-0.527627 0.17297 0.430055
0.202747 0.35201 0.553288
0.21737 0.370732 -0.493446
0.201364 0.473112 0.44764
0.146849 -0.448712 0.309884
0.489043 0.146954 0.382511
-0.557466 0.267119 0.382655
0.181836 0.411926 0.493494
0.13825 0.456939 -0.502843
0.179135 0.466775 0.400734
0.136962 -0.57337 0.368846
0.484224 0.129403 0.420102
-0.410981 0.118755 0.42178
0.168293 0.339532 0.490958
0.0980579 0.37502 -0.47035
0.228826 0.507389 0.441619
0.176489 -0.483606 0.392518
0.480205 0.145356 0.454927
-0.532691 0.142337 0.411435
0.210751 0.433343 0.470836
0.168107 0.418166 -0.486151
0.155589 0.434919 0.437488
0.187272 -0.488132 0.391357
0.522986 0.0729314 0.471441
-0.523655 0.108425 0.540144
0.163014 0.463171 0.502462
0.0871933 0.399055 -0.505865
0.143559 0.54273 0.433985
0.233271 -0.539403 0.436409
0.512256 0.165252 0.446712
-0.476238 0.126607 0.485869
0.185535 0.523415 0.473119
0.211599 0.412932 -0.483773
0.149119 0.542234 0.452068
0.146092 -0.551341 0.489264
0.511737 0.144997 0.494148
-0.455782 0.104218 0.488318
0.119622 0.42047 0.536186
0.251556 0.481191 -0.515045
0.261948 0.542377 0.466344
0.204467 -0.518119 0.416111
0.480794 0.0965206 0.527834
-0.524611 0.220812 0.378874
0.157953 0.508453 0.536481
0.101456 0.562062 -0.488795
0.222681 0.481328 0.47964
0.235011 -0.543309 0.519265
0.457564 0.199891 0.418664
-0.434722 0.144995 0.492095
0.191177 0.442172 0.529279
0.13811 0.535585 -0.514364
0.177401 0.551362 0.469067
0.194447 -0.475487 0.526983
0.516551 0.147252 0.456169
-0.520593 0.144209 0.444174
0.164034 0.511871 0.509025
0.133552 0.521941 -0.522504
0.126765 0.480716 0.461787
0.18274 -0.570193 0.537532
0.542109 0.205647 0.493585
-0.489001 0.128738 0.404616
0.162445 -0.456963 0.523061
0.225532 -0.535953 -0.475577
0.187799 0.553125 -0.47235
0.165048 -0.450507 -0.567067
0.569613 0.22492 -0.513774
-0.518937 0.190422 -0.412935
0.191743 -0.393288 0.563676
0.153348 -0.531211 -0.490674
0.16667 0.561726 -0.539933
0.143475 -0.571052 -0.50347
0.451779 0.158352 -0.488537
-0.500195 0.150627 -0.459455
0.198147 -0.425909 0.500419
0.147454 -0.5108 -0.485404
0.176641 0.554674 -0.394121
0.198179 -0.539673 -0.491011
0.531501 0.227209 -0.489811
-0.530408 0.159197 -0.509226
0.124018 -0.404787 0.610894
0.285951 -0.55143 -0.431478
0.0829674 0.490122 -0.414275
0.202539 -0.564751 -0.432359
0.503078 0.150728 -0.466065
-0.494879 0.157524 -0.471826
0.1153 -0.479243 0.555617
0.181846 -0.450079 -0.433497
0.197989 0.494916 -0.548671
0.19067 -0.526164 -0.503251
0.4414 0.132781 -0.50927
-0.497659 0.181843 -0.428052
0.227588 -0.442631 0.529881
0.159873 -0.45191 -0.507479
0.213336 0.553443 -0.463472
0.110648 -0.495201 -0.406167
0.422479 0.116485 -0.438132
-0.469578 0.111483 -0.474456
0.16994 -0.427772 0.489533
0.227463 -0.423273 -0.488075
0.215501 0.460872 -0.446209
0.211371 -0.554938 -0.421613
0.483977 0.234277 -0.478245
-0.511731 0.136666 -0.398384
0.205939 -0.431069 0.493043
0.217123 -0.428877 -0.496457
0.116449 0.496721 -0.389182
0.164457 -0.54483 -0.419564
0.49684 0.168586 -0.390329
-0.508166 0.186764 -0.452114
0.153679 -0.436236 0.48248
0.121209 -0.504422 -0.494109
0.20272 0.517837 -0.445558
0.172228 -0.489634 -0.473138
0.448373 0.189307 -0.347212
-0.502871 0.227446 -0.541344
0.148277 -0.414856 0.463095
0.169012 -0.391357 -0.517495
0.183801 0.474287 -0.397177
0.186979 -0.462351 -0.379735
0.558796 0.156507 -0.40152
-0.581355 0.188099 -0.425246
0.172859 -0.429094 0.478944
0.244106 -0.396586 -0.477596
0.193926 0.435187 -0.472114
0.0589719 -0.460242 -0.426481
0.519595 0.169147 -0.414557
-0.463139 0.194734 -0.447789
0.182587 -0.365656 0.489329
0.193029 -0.34048 -0.455306
0.232048 0.512568 -0.376278
0.151808 -0.493016 -0.384592
0.525208 0.209714 -0.414059
-0.55615 0.13988 -0.390329
0.157359 -0.385696 0.482096
0.100035 -0.394522 -0.525001
0.211873 0.550335 -0.385457
0.180036 -0.49909 -0.334826
0.510181 0.204057 -0.401864
-0.518756 0.231698 -0.381134
0.149028 -0.428577 0.55862
0.159451 -0.408518 -0.549775
0.204754 0.574622 -0.343535
0.142597 -0.505228 -0.411619
0.472646 0.156018 -0.411441
-0.454076 0.200254 -0.347741
0.206346 -0.434617 0.491418
0.207553 -0.36712 -0.531022
0.120327 0.537569 -0.398692
0.126838 -0.522174 -0.342295
0.520241 0.179619 -0.398827
-0.577806 0.187446 -0.397214
0.174096 -0.36363 0.579943
0.14815 -0.362267 -0.483369
0.106279 0.417092 -0.346951
0.144845 -0.440211 -0.319312
0.515938 0.138352 -0.358597
-0.512547 0.250912 -0.359861
0.208672 -0.333488 0.522979
0.195438 -0.352009 -0.450602
0.155158 0.537235 -0.318946
0.193131 -0.547452 -0.317149
0.489729 0.174189 -0.395974
-0.525811 0.157696 -0.334106
0.194388 -0.372482 0.528451
0.207773 -0.312743 -0.409634
0.210943 0.457988 -0.289965
0.159055 -0.467899 -0.288514
0.489914 0.185612 -0.310114
-0.456829 0.215374 -0.28693
0.192051 -0.2922 0.481536
0.206802 -0.295448 -0.541364
0.166946 0.599467 -0.335566
0.18562 -0.457758 -0.352997
0.51425 0.101543 -0.311811
-0.48606 0.193231 -0.323317
0.11121 -0.343262 0.558871
0.189053 -0.314462 -0.488023
0.122822 0.481816 -0.24095
0.13478 -0.473661 -0.334772
0.538404 0.175191 -0.305218
-0.51323 0.191603 -0.283069
0.151556 -0.293246 0.538585
0.111655 -0.321889 -0.400028
0.139828 0.442566 -0.355239
0.172538 -0.527194 -0.262476
0.39478 0.108431 -0.33109
-0.534406 0.218224 -0.307214
0.128609 -0.250728 0.512678
0.176935 -0.266149 -0.530951
0.132 0.499105 -0.320985
0.189568 -0.508608 -0.287664
0.485524 0.266633 -0.285247
-0.443043 0.16976 -0.298697
0.182405 -0.310582 0.556249
0.13058 -0.324176 -0.501591
0.17383 0.484392 -0.277738
0.151348 -0.566891 -0.224335
0.48946 0.127718 -0.265528
-0.506014 0.157296 -0.312497
0.163469 -0.321143 0.441224
0.228764 -0.233642 -0.470247
0.282393 0.508249 -0.236192
0.182688 -0.473387 -0.303978
0.454803 0.120577 -0.267509
-0.523331 0.164815 -0.307555
0.175506 -0.292996 0.443609
0.251703 -0.35658 -0.527534
0.17326 0.48941 -0.313445
0.326936 -0.462383 -0.332723
0.539382 0.203369 -0.295014
-0.574233 0.152515 -0.283682
0.18252 -0.210034 0.514859
0.160004 -0.36718 -0.506999
0.165211 0.528648 -0.241421
0.288707 -0.511678 -0.336396
0.565176 0.178823 -0.241732
-0.472853 0.12511 -0.272357
0.121232 -0.223909 0.525784
0.129265 -0.197047 -0.529841
0.268231 0.529855 -0.18493
0.204941 -0.400765 -0.214639
0.502508 0.118045 -0.180493
-0.522023 0.120521 -0.277188
0.15987 -0.296817 0.449215
0.172145 -0.27144 -0.557742
0.15036 0.542158 -0.239977
0.196441 -0.601108 -0.225361
0.497261 0.107736 -0.27125
-0.479493 0.167292 -0.244187
0.20853 -0.175534 0.553598
0.212977 -0.247956 -0.516702
0.0663582 0.433468 -0.201792
0.224757 -0.550255 -0.23537
0.456246 0.185822 -0.2215
-0.490687 0.190377 -0.195718
0.265183 -0.219031 0.503931
0.181066 -0.139964 -0.534685
0.180777 0.465561 -0.207641
0.192595 -0.530315 -0.207295
0.529199 0.135041 -0.173702
-0.51457 0.214863 -0.187764
0.224629 -0.19145 0.532469
0.207954 -0.173856 -0.495367
0.178292 0.450426 -0.199906
0.162875 -0.577833 -0.252849
0.446329 0.142182 -0.2002
-0.569647 0.186041 -0.225376
0.18168 -0.208834 0.591705
0.180451 -0.154637 -0.543313
0.193771 0.53318 -0.221927
0.230313 -0.500484 -0.184893
0.530449 0.191133 -0.195145
-0.486838 0.156414 -0.229756
0.176451 -0.185754 0.4618
0.133627 -0.171964 -0.49134
0.186232 0.454536 -0.190367
0.147107 -0.541751 -0.198158
0.547707 0.174714 -0.251929
-0.521987 0.242585 -0.15508
0.167783 -0.178752 0.534596
0.113685 -0.154177 -0.481619
0.133697 0.52366 -0.181107
0.165451 -0.537262 -0.154501
0.470015 0.157657 -0.188955
-0.543755 0.206931 -0.170991
0.12045 -0.107154 0.45167
0.284957 -0.159156 -0.491962
0.176667 0.475219 -0.157149
0.141597 -0.490263 -0.11086
0.456748 0.160955 -0.140636
-0.502231 0.174853 -0.170045
0.240171 -0.173724 0.473484
0.235501 -0.118476 -0.55599
0.109144 0.534249 -0.108258
0.116957 -0.509666 -0.158429
0.508455 0.148427 -0.187863
-0.481559 0.156707 -0.147237
0.287033 -0.117243 0.471893
0.165592 -0.139393 -0.491461
0.181126 0.567893 -0.179818
0.227857 -0.482864 -0.0851404
0.48434 0.160862 -0.207371
-0.497795 0.117099 -0.156703
0.173043 -0.142898 0.513148
0.186801 -0.128203 -0.521427
0.10793 0.516654 -0.162932
0.116553 -0.477743 -0.0740875
0.480005 0.148306 -0.0915906
-0.501562 0.168089 -0.12675
0.238063 -0.1635 0.444991
0.165167 -0.0808862 -0.54899
0.16658 0.547168 -0.169166
0.18227 -0.569041 -0.179836
0.513962 0.199535 -0.182422
-0.428891 0.195427 -0.0991356
0.167004 -0.0780376 0.506011
0.152638 -0.144285 -0.489177
0.223213 0.517367 -0.0695989
0.155554 -0.595432 -0.0911344
0.516334 0.169209 -0.119387
-0.501429 0.174644 -0.0824152
0.212525 0.00396361 0.400514
0.144222 -0.0648999 -0.498845
0.152344 0.415913 -0.0360767
0.209869 -0.518122 -0.0836235
0.445617 0.205022 -0.0894856
-0.602942 0.130128 -0.105668
0.133613 -0.121735 0.518654
0.13121 -0.0981422 -0.476707
0.234984 0.504413 -0.122248
0.188869 -0.413412 -0.0551081
0.480294 0.22086 -0.115425
-0.567693 0.19 -0.0480368
0.152305 -0.120856 0.473395
0.207672 -0.0415786 -0.568963
0.0880006 0.436647 -0.0603847
0.189909 -0.480388 -0.106163
0.52586 0.199267 -0.0677581
-0.53092 0.163858 -0.0715893
0.193716 -0.0105241 0.462826
0.251251 0.00500345 -0.501484
0.194589 0.519991 -0.0894151
0.167867 -0.502737 0.00921286
0.494721 0.160741 -0.0323822
-0.470674 0.150548 -0.075046
0.211213 -0.070917 0.50693
0.229723 -0.0664501 -0.527075
0.226772 0.511721 -0.160972
0.109473 -0.522482 -0.0989191
0.469553 0.133559 -0.0592897
-0.553772 0.166057 -0.082985
0.0802592 -0.0167742 0.545125
0.143934 -0.0413884 -0.522114
0.153913 0.571962 -0.0759313
0.151446 -0.514121 0.0871742
0.506187 0.215439 -0.0635376
-0.543175 0.183333 -0.0719418
0.16208 0.0123001 0.469552
0.148786 -0.102125 -0.4657
0.207192 0.630173 -0.0221218
0.0918001 -0.435788 -0.000244613
0.491667 0.139391 -0.0705819
-0.501116 0.152373 -0.092404
0.178722 -0.027024 0.503884
0.188329 -0.0385001 -0.493244
0.190992 0.569984 0.0554141
0.076126 -0.538596 -0.0162067
0.54084 0.232637 -0.0239569
-0.486088 0.29323 -0.0393322
0.19988 -0.00421029 0.49469
0.088455 -0.0163047 -0.555475
0.153648 0.45912 -0.0541255
0.183827 -0.460033 -0.0294911
0.481165 0.200753 -0.073424
-0.452005 0.185391 -0.0261151
0.161514 0.00175176 0.472541
0.154771 -0.037654 -0.524761
0.115044 0.556991 -0.0143311
0.142787 -0.488007 0.0163411
0.6031 0.291814 -0.0317611
-0.457259 0.197301 0.0564554
0.139871 0.0286019 0.541591
0.191785 -0.0342116 -0.4929
0.180791 0.466482 -0.041445
0.169628 -0.50529 0.0581463
0.461893 0.226491 -0.0409554
-0.456641 0.165428 0.0531622
0.180453 0.0756944 0.482551
0.108428 -0.0396873 -0.554157
0.161053 0.455764 0.0528994
0.198729 -0.544489 -0.0244959
0.534469 0.169789 -0.0450513
-0.527394 0.191238 -0.0228776
0.159599 0.0983762 0.465069
0.135823 0.061344 -0.528264
0.1389 0.5403 0.0284342
0.192679 -0.543627 -0.0488899
0.48876 0.164275 0.0205757
-0.53158 0.192429 0.0493108
0.205599 0.0767052 0.46298
0.113433 -0.00408066 -0.466643
0.13381 0.55303 -0.0229108
0.211624 -0.572473 0.0955319
0.482977 0.148353 0.0542741
-0.527379 0.165045 0.0604704
0.12526 0.0636742 0.55083
0.216711 0.0614128 -0.502688
0.204247 0.367661 0.0778861
0.221915 -0.540841 0.0556142
0.532391 0.212138 0.0755716
-0.455784 0.198917 0.0970078
0.191272 0.0870907 0.485538
0.202652 0.110096 -0.520247
0.110267 0.467489 0.0118741
0.234842 -0.482348 0.0853234
0.512892 0.17405 0.0501832
-0.514518 0.215904 0.0390138
0.23203 0.0535087 0.509739
0.189395 0.115768 -0.493548
0.184312 0.428238 -0.0744357
0.203025 -0.452472 0.0831597
0.48187 0.176639 0.130993
-0.467907 0.14691 0.0587465
0.203008 0.0652648 0.554345
0.214856 0.0864052 -0.54406
0.13991 0.529184 0.0361752
0.135491 -0.388005 0.0452092
0.526433 0.0916831 -0.00242104
-0.520688 0.206486 0.0726697
0.1342 0.101608 0.52702
0.198098 0.0755128 -0.404612
0.241977 0.483867 0.023344
0.228022 -0.561501 0.0869571
0.503827 0.212858 0.158147
-0.586043 0.1568 0.0731813
0.157102 0.105329 0.539373
0.180644 0.0353313 -0.476289
0.149945 0.496777 0.0728778
0.155462 -0.483097 0.135661
0.572112 0.127895 0.0956158
-0.468378 0.110671 0.125824
0.245281 0.122993 0.507424
0.18111 0.128992 -0.54192
0.247578 0.485204 0.154459
0.171091 -0.498416 0.111319
0.479869 0.125659 0.104002
-0.518947 0.165212 0.0926241
0.120961 0.116323 0.568352
0.127309 0.137715 -0.405819
0.141529 0.504281 0.0723207
0.169323 -0.42509 0.113949
0.525404 0.196249 0.0875952
-0.468009 0.130161 0.125788
0.187312 0.144347 0.525532
0.244113 0.0991041 -0.502736
0.216762 0.521849 0.149618
0.158211 -0.497399 0.143619
0.524314 0.159103 0.10416
-0.563493 0.128897 0.154458
0.17964 0.107662 0.512566
0.169385 0.188029 -0.543712
0.213813 0.550873 0.156303
0.161708 -0.503925 0.126338
0.519513 0.188908 0.0717957
-0.463276 0.198955 0.138292
0.106755 0.185308 0.496455
0.0975288 0.0602372 -0.486598
0.171138 0.439615 0.166551
0.194367 -0.560419 0.141085
0.585761 0.168285 0.189787
-0.431177 0.263629 0.176747
0.189602 0.167666 0.492423
0.195036 0.0883141 -0.50714
0.15422 0.447481 0.127256
0.150691 -0.486576 0.167799
0.452318 0.17932 0.182936
-0.564467 0.200974 0.15874
0.265262 0.123482 0.50067
0.199557 0.10711 -0.532757
0.122735 0.517095 0.194511
0.213155 -0.541695 0.107552
0.537858 0.110043 0.195739
-0.536284 0.121982 0.161524
0.262156 0.199018 0.487706
0.161236 0.190797 -0.515446
0.176139 0.544765 0.211032
0.209519 -0.545421 0.238778
0.4826 0.149366 0.215001
-0.459546 0.162729 0.20344
0.163105 0.225987 0.460355
0.105454 0.167432 -0.473169
0.185621 0.501103 0.142847
0.217803 -0.517405 0.267018
0.470156 0.145964 0.131373
-0.509439 0.165171 0.155028
0.216052 0.159706 0.549381
0.201517 0.125617 -0.496285
0.161296 0.517605 0.250606
0.244937 -0.482135 0.237845
0.488385 0.289204 0.0987502
-0.52097 0.164293 0.165952
0.194941 0.233438 0.563598
0.21387 0.271928 -0.491702
0.13836 0.522056 0.275517
0.2069 -0.494183 0.232082
0.46579 0.203684 0.225357
-0.527139 0.166935 0.261806
0.18827 0.289023 0.52645
0.199243 0.282923 -0.523967
0.139003 0.518013 0.171305
0.0873429 -0.620102 0.307533
0.516577 0.139611 0.198648
-0.499251 0.172106 0.210765
0.20107 0.21592 0.563391
0.201401 0.217912 -0.541584
0.178198 0.532029 0.204379
0.204127 -0.465347 0.164231
0.581925 0.244055 0.221745
-0.529102 0.169238 0.200903
0.101104 0.26904 0.523264
0.214524 0.190187 -0.437745
0.134816 0.477253 0.178299
0.123518 -0.561798 0.261732
0.534509 0.248644 0.332711
-0.508811 0.125495 0.278594
0.157602 0.233136 0.545594
0.135357 0.227833 -0.586234
0.210015 0.508578 0.160701
0.134537 -0.500277 0.250689
0.495758 0.228703 0.308005
-0.457105 0.244933 0.239372
0.216484 0.216382 0.461081
0.209405 0.289612 -0.500323
0.136985 0.504644 0.309938
0.0912762 -0.515921 0.254489
0.612078 0.223726 0.15283
-0.497109 0.140875 0.314534
0.169806 0.264113 0.558388
0.176102 0.270375 -0.433937
0.225851 0.470039 0.314783
0.140171 -0.496582 0.27864
0.458195 0.251881 0.220715
-0.548677 0.212195 0.251162
0.233459 0.213049 0.561618
0.16891 0.283506 -0.516729
0.144721 0.482178 0.28082
0.230821 -0.406199 0.235809
0.47622 0.1228 0.339279
-0.541961 0.144812 0.255863
0.223915 0.261757 0.440058
0.153117 0.319112 -0.479485
0.155084 0.467583 0.331128
0.276365 -0.556381 0.28459
0.476723 0.166568 0.210337
-0.49269 0.190612 0.265385
0.152096 0.277655 0.460908
0.212644 0.276201 -0.516265
0.173575 0.504909 0.245096
0.0872982 -0.457867 0.311177
0.45674 0.134984 0.305842
-0.497817 0.111992 0.282373
0.1837 0.199057 0.488129
0.170666 0.238336 -0.529541
0.191793 0.491429 0.34926
0.126448 -0.512613 0.317725
0.51562 0.167895 0.255151
-0.424383 0.200088 0.365438
0.153512 0.315101 0.519014
0.196168 0.381381 -0.458136
0.157252 0.515901 0.328077
0.211863 -0.539716 0.313241
0.515569 0.205581 0.350101
-0.422147 0.183131 0.353646
0.177189 0.392965 0.493458
0.135081 0.402029 -0.602404
0.18354 0.483216 0.271562
0.150842 -0.565299 0.366951
0.576796 0.16326 0.325005
-0.48808 0.170979 0.332924
0.170954 0.362774 0.461199
0.148262 0.338318 -0.532054
0.197465 0.512173 0.319687
0.229192 -0.541452 0.385813
0.551373 0.159886 0.302419
-0.504243 0.165033 0.278829
0.153929 0.345032 0.555306
0.161254 0.389752 -0.486847
0.184928 0.499206 0.326614
0.132678 -0.474755 0.416298
0.438773 0.144736 0.370316
-0.454904 0.1874 0.327212
0.220389 0.36667 0.514867
0.119515 0.426811 -0.478034
0.113071 0.554781 0.355348
0.113029 -0.592719 0.346274
0.508768 0.212671 0.35244
-0.476567 0.195204 0.407296
0.208392 0.366993 0.539888
0.179861 0.413093 -0.569514
0.193986 0.434702 0.355026
0.18209 -0.48105 0.409387
0.515709 0.132622 0.333713
-0.510559 0.159781 0.453426
0.153187 0.449553 0.530878
0.174285 0.417304 -0.519665
0.142682 0.51886 0.348491
0.197036 -0.457017 0.328327
0.510269 0.148043 0.381717
-0.512927 0.195004 0.350813
0.138103 0.334468 0.518127
0.194584 0.335708 -0.498867
0.189801 0.52857 0.38684
0.130232 -0.512392 0.437522
0.544359 0.234006 0.286121
-0.505772 0.176913 0.323601
0.24042 0.451598 0.510973
0.136837 0.39188 -0.522838
0.20941 0.46365 0.455262
0.145529 -0.448083 0.372622
0.538925 0.144464 0.373712
-0.610509 0.198257 0.389251
0.203608 0.457308 0.468073
0.162728 0.402002 -0.514719
0.163406 0.453632 0.374233
0.16424 -0.52495 0.450551
0.512773 0.175131 0.398971
-0.6141 0.234599 0.425247
0.135866 0.417485 0.504123
0.155899 0.396646 -0.589757
0.204737 0.493838 0.435109
0.19916 -0.512903 0.385649
0.461612 0.135995 0.414089
-0.48269 0.20737 0.446451
0.173793 0.392673 0.53481
0.155663 0.470963 -0.495065
0.169816 0.502566 0.431887
0.198539 -0.507855 0.426445
0.554119 0.149688 0.436843
-0.489039 0.187692 0.443507
0.235557 0.433325 0.531194
0.208154 0.531725 -0.495956
0.102149 0.581321 0.416816
0.191474 -0.494284 0.483746
0.479289 0.225072 0.495167
-0.464442 0.193172 0.523742
0.209374 0.472407 0.50828
0.133862 0.400831 -0.433883
0.170768 0.467315 0.460148
0.264135 -0.482002 0.488096
0.533065 0.213299 0.38356
-0.515292 0.21632 0.432493
0.219666 0.525823 0.426415
0.159779 0.461527 -0.542358
0.171661 0.468825 0.453162
0.129113 -0.508888 0.414326
0.451311 0.178309 0.478899
-0.50308 0.195086 0.448886
0.190272 0.533924 0.53067
0.144044 0.450417 -0.548371
0.0990371 0.498625 0.508133
0.218955 -0.494077 0.447175
0.558648 0.221224 0.50346
-0.416269 0.215651 0.446143
0.177079 0.466908 0.473895
0.166106 0.453122 -0.468953
0.169761 0.559418 0.490499
0.201979 -0.401681 0.544084
0.524458 0.15637 0.477145
-0.481455 0.198124 0.464925
0.225108 0.487707 0.563878
0.151132 0.518713 -0.471196
0.160771 0.53639 0.52266
0.140937 -0.571852 0.517988
0.54051 0.165239 0.48761
-0.521196 0.172859 0.498843
0.151717 0.515307 0.47806
0.148659 0.487777 -0.481921
0.162663 0.507583 0.518669
0.107067 -0.417447 0.549096
0.499495 0.117599 0.451837
-0.490489 0.189205 0.436519
0.13943 -0.513502 0.504043
0.18724 -0.47398 -0.517422
0.173415 0.523206 -0.49174
0.172194 -0.529301 -0.493781
0.523097 0.171743 -0.480773
-0.463921 0.156019 -0.545439
0.167629 -0.419429 0.472405
0.153675 -0.475522 -0.494232
0.101086 0.463368 -0.500909
0.168592 -0.597718 -0.455351
0.565912 0.163918 -0.450897
-0.444355 0.187911 -0.458299
0.199964 -0.541723 0.467528
0.194711 -0.480644 -0.489987
0.203077 0.47807 -0.504214
0.130444 -0.530892 -0.477072
0.478382 0.229668 -0.45479
-0.487452 0.229295 -0.467752
0.154106 -0.50419 0.506604
0.129183 -0.537423 -0.479651
0.173867 0.52337 -0.453126
0.0866939 -0.499805 -0.416525
0.456896 0.198346 -0.448435
-0.500768 0.173084 -0.463813
0.192464 -0.401876 0.506682
0.17651 -0.476436 -0.522789
0.205278 0.542539 -0.403701
0.201095 -0.498295 -0.490019
0.556077 0.164821 -0.439231
-0.482182 0.217712 -0.431532
0.165493 -0.43009 0.503983
0.227759 -0.449534 -0.486876
0.173975 0.533234 -0.527266
0.191957 -0.508004 -0.44937
0.491936 0.179055 -0.47274
-0.524744 0.201829 -0.443257
0.181224 -0.433406 0.465772
0.132446 -0.427185 -0.504912
0.159389 0.480679 -0.507353
0.156543 -0.513542 -0.415049
0.505229 0.116983 -0.408837
-0.477836 0.136407 -0.472422
0.182623 -0.404482 0.495754
0.153027 -0.430991 -0.544086
0.183918 0.444992 -0.479488
0.236364 -0.51589 -0.470608
0.584205 0.200836 -0.390889
-0.460149 0.148581 -0.367712
0.11392 -0.349843 0.485628
0.130116 -0.432309 -0.417571
0.165524 0.467065 -0.374873
0.25578 -0.513706 -0.454731
0.547261 0.194401 -0.3911
-0.536734 0.176482 -0.445761
0.186298 -0.344729 0.411615
0.261402 -0.403477 -0.454319
0.157678 0.510133 -0.491319
0.206033 -0.537062 -0.443727
0.456085 0.164879 -0.442823
-0.482833 0.208039 -0.424458
0.196697 -0.40485 0.477515
0.18988 -0.401955 -0.484932
0.204498 0.504257 -0.452844
0.10393 -0.507178 -0.378653
0.485497 0.193028 -0.375844
-0.481736 0.111992 -0.376163
0.182931 -0.431093 0.517834
0.163789 -0.396856 -0.564493
0.169943 0.496839 -0.375853
0.204412 -0.511908 -0.515522
0.567846 0.149737 -0.376513
-0.488537 0.164639 -0.44162
0.108739 -0.3863 0.479795
0.20564 -0.34552 -0.52407
0.19572 0.43381 -0.389176
0.192023 -0.444556 -0.402368
0.479367 0.258304 -0.37881
-0.503078 0.163647 -0.302418
0.215624 -0.324048 0.474817
0.232472 -0.3444 -0.531855
0.218982 0.526142 -0.360608
0.216763 -0.519967 -0.405419
0.4729 0.160143 -0.296998
-0.483598 0.157582 -0.350038
0.154146 -0.354308 0.497038
0.179749 -0.315056 -0.534955
0.159131 0.47025 -0.359326
0.177329 -0.545107 -0.412813
0.470016 0.144537 -0.380155
-0.513604 0.171331 -0.321896
0.284232 -0.378965 0.453114
0.235903 -0.360909 -0.484469
0.294496 0.54496 -0.324044
0.117691 -0.476002 -0.304173
0.507394 0.146751 -0.281086
-0.528686 0.203815 -0.396451
0.19183 -0.280523 0.574419
0.208314 -0.379873 -0.506341
0.140169 0.478426 -0.36137
0.171016 -0.504264 -0.359331
0.485645 0.237992 -0.294497
-0.477678 0.198253 -0.30939
0.244566 -0.328743 0.543365
0.113267 -0.299496 -0.494163
0.246462 0.490551 -0.350713
0.213516 -0.58437 -0.373858
0.43613 0.172988 -0.276444
-0.510101 0.121822 -0.26542
0.151534 -0.337374 0.50404
0.217457 -0.282094 -0.46092
0.125406 0.505651 -0.366618
0.19498 -0.51423 -0.350675
0.517212 0.187457 -0.317832
-0.454188 0.186505 -0.303395
0.197879 -0.308052 0.539714
0.189739 -0.21793 -0.58645
0.153553 0.477146 -0.30417
0.186928 -0.497697 -0.27301
0.354307 0.228576 -0.314151
-0.476795 0.200867 -0.343541
0.197335 -0.346908 0.522639
0.209296 -0.361937 -0.552472
0.20241 0.538529 -0.308808
0.238515 -0.548542 -0.349696
0.533007 0.202657 -0.32418
-0.468758 0.170483 -0.320041
0.185348 -0.248993 0.502967
0.182032 -0.281304 -0.531682
0.190636 0.477294 -0.312615
0.188483 -0.484084 -0.284055
0.491777 0.190433 -0.262935
-0.468329 0.151463 -0.251835
0.229609 -0.29168 0.538814
0.203526 -0.315533 -0.485203
0.139476 0.513699 -0.301714
0.222885 -0.512007 -0.309861
0.563603 0.221134 -0.250232
-0.527071 0.124374 -0.296279
0.193421 -0.247358 0.501975
0.139706 -0.321551 -0.508551
0.141422 0.502753 -0.28852
0.178359 -0.499128 -0.394325
0.494596 0.239699 -0.277829
-0.528402 0.164191 -0.222115
0.259137 -0.240595 0.575723
0.2385 -0.274158 -0.570575
0.170247 0.499149 -0.309823
0.173143 -0.576743 -0.24208
0.452291 0.224875 -0.271587
-0.506583 0.1812 -0.194335
0.141908 -0.233519 0.453729
0.204965 -0.25282 -0.535182
0.168742 0.540095 -0.277724
0.217437 -0.547874 -0.272489
0.582707 0.167128 -0.24592
-0.483731 0.165165 -0.271427
0.229399 -0.164818 0.533686
0.140407 -0.266527 -0.562265
0.179377 0.55426 -0.279609
0.237182 -0.493125 -0.192916
0.490128 0.210538 -0.222756
-0.497694 0.22082 -0.182105
0.182992 -0.224194 0.546189
0.182601 -0.340744 -0.51254
0.188682 0.471257 -0.233741
0.213975 -0.504181 -0.26644
0.457327 0.252754 -0.238971
-0.517274 0.189731 -0.249641
0.271782 -0.149229 0.434697
0.164072 -0.199422 -0.484489
0.180301 0.504364 -0.248526
0.245719 -0.49177 -0.283982
0.525588 0.147565 -0.20861
-0.551315 0.158265 -0.202444
0.213244 -0.221012 0.469472
0.154974 -0.246989 -0.525162
0.223615 0.520005 -0.175163
0.225737 -0.575105 -0.291749
0.471781 0.217221 -0.191857
-0.512872 0.0556611 -0.104334
0.227389 -0.181622 0.469128
0.120601 -0.182799 -0.530358
0.181917 0.420329 -0.182786
0.215481 -0.528615 -0.18461
0.447391 0.246794 -0.185442
-0.442834 0.0775318 -0.136524
0.155782 -0.162363 0.546906
0.180832 -0.175149 -0.531018
0.244251 0.532339 -0.156002
0.173019 -0.541297 -0.209252
0.420253 0.254119 -0.186331
-0.506215 0.160938 -0.15807
0.225122 -0.140554 0.542395
0.175147 -0.141769 -0.477915
0.167661 0.510081 -0.223718
0.184021 -0.505832 -0.114538
0.503485 0.182057 -0.169804
-0.490989 0.188424 -0.188421
0.189602 -0.150805 0.476703
0.100519 -0.130698 -0.408246
0.236979 0.500903 -0.145296
0.198869 -0.505147 -0.0997822
0.431018 0.138866 -0.165769
-0.496371 0.214238 -0.1952
0.127678 -0.193268 0.474849
0.209985 -0.231556 -0.455981
0.254136 0.497586 -0.230673
0.207975 -0.57146 -0.265168
0.479185 0.17982 -0.0960164
-0.496369 0.138723 -0.168549
0.166467 -0.0759753 0.504027
0.0988421 -0.141612 -0.49004
0.170598 0.51187 -0.122975
0.194204 -0.557372 -0.10039
0.431726 0.252673 -0.118426
-0.475231 0.22242 -0.144211
0.159371 -0.129568 0.465113
0.230717 -0.195819 -0.511918
0.19114 0.52141 -0.153117
0.152851 -0.519465 -0.158185
0.501877 0.189875 -0.165018
-0.462615 0.174211 -0.103803
0.201118 -0.126712 0.443499
0.18786 -0.146872 -0.510102
0.233254 0.471745 -0.088781
0.169427 -0.51955 -0.042689
0.505537 0.218596 -0.160313
-0.483533 0.210639 -0.150891
0.168358 -0.161293 0.542409
0.225026 -0.18816 -0.525958
0.176457 0.439084 -0.124967
0.260864 -0.568907 -0.113556
0.483767 0.183419 -0.0557585
-0.562155 0.160104 -0.0856761
0.173217 -0.0590191 0.4673
0.181426 -0.07512 -0.501274
0.15549 0.511977 -0.107716
0.233989 -0.613282 -0.112236
0.497463 0.21041 -0.111076
-0.531568 0.218407 -0.0672917
0.194354 -0.079808 0.526696
0.137744 -0.0167171 -0.42657
0.210317 0.523985 -0.141719
0.218798 -0.547449 -0.138381
0.516987 0.177477 -0.137119
-0.463979 0.218438 -0.0588431
0.116363 -0.111241 0.483816
0.131451 -0.115554 -0.568693
0.137029 0.535055 -0.0973032
0.143542 -0.520014 -0.0642493
0.526985 0.137918 -0.006754
-0.497753 0.190747 -0.0760897
0.172163 -0.0107523 0.448388
0.16751 0.0195946 -0.542175
0.181085 0.49024 -0.0102112
0.148991 -0.486749 -0.0154945
0.477027 0.162671 -0.0633944
-0.462273 0.174712 -0.0841718
0.0962469 -0.0629583 0.500574
0.141317 -0.0534658 -0.481342
0.147931 0.51875 -0.0797776
0.200327 -0.490129 -0.102471
0.50626 0.157519 -0.0773548
-0.491891 0.198836 -0.102829
0.149588 -0.0491198 0.533499
0.199339 0.00212623 -0.541982
0.150817 0.534146 -0.0675776
0.116713 -0.49378 -0.0795806
0.510888 0.259962 -0.00899538
-0.450378 0.260894 -0.0917889
0.241857 -0.0533763 0.47165
0.119139 -0.0486152 -0.555083
0.255285 0.478246 -0.0547402
0.141365 -0.528714 -0.0195952
0.523594 0.175116 -0.0348475
-0.458027 0.175312 -0.0695802
0.21665 -0.0640188 0.424064
0.206104 0.0118645 -0.45783
0.103085 0.500431 0.0145342
0.142629 -0.496925 -0.0682727
0.542876 0.104642 -0.0463841
-0.527401 0.216572 -0.0800485
0.127187 -0.00349931 0.484111
0.12518 0.0163041 -0.443777
0.197982 0.528921 -0.103023
0.235498 -0.449977 -0.0553515
0.438381 0.185293 -0.0701014
-0.409273 0.110709 -0.00739784
0.142559 -0.0278003 0.432059
0.246289 0.00982052 -0.52973
0.212993 0.469308 -0.0131999
0.103681 -0.453346 0.0485281
0.460309 0.227216 -0.0291041
-0.459925 0.201634 -0.0686946
0.234162 -0.0190678 0.472998
0.151432 -0.0108622 -0.500654
0.197838 0.475244 -0.0173386
0.152396 -0.480319 0.0209146
0.530921 0.224749 -0.00735916
-0.487938 0.129454 0.00468826
0.21551 -0.0245463 0.584198
0.25487 0.0624472 -0.430072
0.160629 0.581287 0.0499389
0.198036 -0.493439 -0.030226
0.536801 0.165916 0.0350957
-0.488967 0.203559 -0.0667827
0.226974 -0.0489652 0.484362
0.242256 0.073466 -0.508947
0.198788 0.479947 -0.00417244
0.17495 -0.501588 -0.0393471
0.464967 0.265371 -0.0479606
-0.52572 0.21995 -0.0281727
0.226913 0.0491181 0.479073
0.169897 -0.0232979 -0.583088
0.150574 0.490692 0.0274305
0.233627 -0.440535 0.0848335
0.499898 0.214723 0.0590671
-0.469014 0.185862 -0.0184555
0.186283 0.0804288 0.504871
0.115377 0.0391348 -0.495133
0.220566 0.495457 -0.0176229
0.203327 -0.515114 0.0172823
0.549491 0.240794 0.0400639
-0.450366 0.138565 0.028999
0.217589 0.0812861 0.527738
0.211117 -9.80009e-05 -0.544595
0.142738 0.484458 0.0188097
0.213316 -0.520134 0.0313147
0.495702 0.111153 0.0829865
-0.465982 0.165618 0.11838
0.158613 0.0624308 0.556442
0.17612 0.0444074 -0.535336
0.189747 0.511987 0.0757515
0.232387 -0.544115 0.0253457
0.466923 0.177097 0.00952528
-0.506814 0.230636 0.0654656
0.172786 0.0841315 0.539298
0.172687 0.0599444 -0.530376
0.149968 0.555285 0.0987017
0.223835 -0.578113 0.0636591
0.478679 0.223714 0.00880809
-0.48148 0.311259 0.0923647
0.224967 0.0253497 0.458215
0.16811 0.0612279 -0.508439
0.220401 0.505365 0.0971578
0.186056 -0.563095 0.0393011
0.427798 0.19244 0.0737788
-0.490203 0.135096 0.0606673
0.203114 0.0827138 0.554227
0.232783 0.0999742 -0.467912
0.143858 0.489609 0.0375077
0.18425 -0.520525 0.0809325
0.497983 0.161017 0.0115912
-0.473718 0.174112 0.08933
0.188795 0.116152 0.440484
0.213799 0.088772 -0.523614
0.171569 0.465315 0.130191
0.115382 -0.496654 0.147772
0.462413 0.17674 0.122533
-0.466811 0.181497 0.147868
0.188873 0.074575 0.52888
0.203718 0.0869672 -0.487725
0.183224 0.491488 0.11402
0.183222 -0.514015 0.0627587
0.517125 0.195241 0.110409
-0.546099 0.113745 0.14367
0.207993 0.145521 0.529468
0.200388 0.162079 -0.514306
0.13442 0.510964 0.196149
0.16268 -0.527055 0.0864376
0.448834 0.14734 0.133546
-0.447833 0.204435 0.164973
0.158745 0.0829908 0.452729
0.158933 0.0931152 -0.53749
0.178774 0.495771 0.0517605
0.168251 -0.473451 0.187432
0.427471 0.143237 0.0788513
-0.471857 0.17077 0.129248
0.22742 0.109827 0.490662
0.275202 0.221545 -0.435528
0.147648 0.485435 0.0602182
0.173617 -0.506564 0.11003
0.497507 0.166498 0.148076
-0.596447 0.193818 0.0562648
0.168584 0.0993609 0.507872
0.211547 0.175127 -0.475886
0.215844 0.508683 0.0733859
0.163699 -0.516171 0.106527
0.511119 0.178009 0.183645
-0.538326 0.203453 0.171718
0.121202 0.170696 0.452383
0.137223 0.0742117 -0.524343
0.139673 0.490257 0.136511
0.168676 -0.529103 0.173214
0.545514 0.147551 0.181406
-0.599397 0.183735 0.144836
0.224125 0.209228 0.503257
0.231907 0.155533 -0.550647
0.20941 0.520607 0.16288
0.219308 -0.461787 0.13853
0.548434 0.204113 0.227908
-0.46761 0.117363 0.163581
0.170861 0.156468 0.488656
0.212935 0.158403 -0.517655
0.193945 0.472679 0.135497
0.187859 -0.53513 0.166199
0.547543 0.137806 0.204624
-0.458201 0.188251 0.171496
0.202798 0.20434 0.537065
0.189767 0.164712 -0.529237
0.229128 0.548618 0.208298
0.120891 -0.522576 0.189516
0.566147 0.201283 0.218402
-0.447847 0.181202 0.1809
0.16159 0.155936 0.509237
0.161118 0.145777 -0.474752
0.164884 0.489792 0.214284
0.215048 -0.567441 0.209645
0.576209 0.193205 0.175833
-0.511691 0.279322 0.207127
0.129073 0.16821 0.509585
0.257845 0.203546 -0.495041
0.13598 0.454898 0.185177
0.211171 -0.498396 0.170747
0.441143 0.195961 0.181848
-0.528376 0.129364 0.242821
0.195989 0.235317 0.48176
0.186892 0.272211 -0.485997
0.194428 0.46138 0.217847
0.140954 -0.477733 0.19984
0.578304 0.116639 0.15087
-0.562063 0.195597 0.221745
0.206655 0.212485 0.433248
0.114035 0.220206 -0.444216
0.238369 0.48642 0.239953
0.242613 -0.506525 0.135763
0.543596 0.142241 0.170779
-0.504617 0.263051 0.200897
0.137838 0.192995 0.543899
0.142158 0.315945 -0.465274
0.149695 0.46607 0.215475
0.107886 -0.48966 0.257651
0.468774 0.183601 0.281021
-0.499064 0.206466 0.201399
0.177464 0.199154 0.536656
0.166809 0.289965 -0.520359
0.124106 0.504309 0.223861
