ply
format ascii 1.0
comment sampling resolution: 0.01
comment noise level: 0.04
comment Created by Open3D
element vertex 1631
property double x
property double y
property double z
end_header
0.477641 -0.150794 0.421797
-0.393339 -0.0975409 0.374283
-0.126102 0.330389 0.546966
-0.111636 0.43173 -0.475525
-0.104032 0.543288 0.359203
-0.124546 -0.474194 0.361367
0.554279 -0.104152 0.370153
-0.509232 -0.158826 0.3862
-0.0677765 0.438341 0.536348
-0.154932 0.406605 -0.518236
-0.108584 0.507038 0.346274
-0.0939154 -0.552116 0.3457
0.517129 -0.122081 0.359522
-0.46733 -0.155925 0.327586
-0.116589 0.341046 0.47792
-0.197499 0.391603 -0.519841
-0.211811 0.490455 0.463487
-0.147534 -0.527701 0.441257
0.512498 -0.139316 0.444167
-0.454784 -0.120846 0.491968
-0.14372 0.322073 0.534609
-0.132696 0.37467 -0.477604
-0.169753 0.477654 0.398012
-0.133503 -0.525786 0.410623
0.509869 -0.190479 0.447893
-0.516823 -0.0460366 0.445985
-0.147293 0.415264 0.542468
-0.0971231 0.441257 -0.49474
-0.210902 0.425839 0.388383
-0.141779 -0.466224 0.481342
0.551426 -0.149335 0.361805
-0.435041 -0.184187 0.438496
-0.169796 0.423808 0.480593
-0.166979 0.390764 -0.434665
-0.0942146 0.436464 0.390223
-0.138779 -0.549051 0.403792
0.436665 -0.147353 0.514601
-0.486842 -0.128256 0.461875
-0.128576 0.474379 0.530469
-0.194063 0.462878 -0.491413
-0.105198 0.506182 0.40256
-0.165584 -0.497443 0.370058
0.497786 -0.1106 0.375083
-0.552134 -0.0708649 0.431194
-0.214426 0.486393 0.531834
-0.0945159 0.469762 -0.508405
-0.175713 0.550406 0.434934
-0.146953 -0.426058 0.440109
0.436655 -0.154982 0.485273
-0.53999 -0.138642 0.472849
-0.12732 0.470094 0.471213
-0.226247 0.420059 -0.499138
-0.0557229 0.565328 0.451121
-0.123124 -0.526856 0.443195
0.560952 -0.108036 0.416509
-0.510517 -0.112585 0.489114
-0.14542 0.519745 0.559278
-0.174843 0.512097 -0.472522
-0.079027 0.493413 0.446718
-0.193139 -0.497987 0.49148
0.491938 -0.15633 0.48385
-0.469859 -0.0921911 0.480115
-0.10784 0.56793 0.501652
-0.109179 0.475797 -0.495622
-0.130435 0.504868 0.458269
-0.144458 -0.445529 0.485115
0.47436 -0.165826 0.499966
-0.526903 -0.11681 0.440642
-0.130103 0.528443 0.508651
-0.0225496 0.508082 -0.555713
-0.0974164 0.503741 0.540338
-0.109379 -0.510422 0.509348
0.451336 -0.180091 0.532988
-0.451851 -0.131002 0.477565
-0.0767585 0.579054 0.513429
-0.220424 0.485933 -0.47441
-0.118063 0.515212 0.516031
-0.131337 -0.51957 0.480575
0.569464 -0.18056 0.417302
-0.512638 -0.124987 0.419717
-0.0913421 -0.495622 0.563518
-0.138939 -0.542326 -0.49795
-0.0498866 0.509274 -0.539686
-0.131993 -0.57269 -0.4959
0.491893 -0.141089 -0.456065
-0.497457 -0.135128 -0.417123
-0.123714 -0.446992 0.493651
-0.187664 -0.532632 -0.510463
-0.0947391 0.520364 -0.457494
-0.110021 -0.478842 -0.474246
0.495544 -0.105519 -0.504676
-0.50092 -0.19381 -0.526225
-0.102857 -0.454015 0.494212
-0.183346 -0.516282 -0.543778
-0.171951 0.547571 -0.454135
-0.118627 -0.521191 -0.439858
0.460521 -0.154411 -0.453482
-0.532204 -0.0942245 -0.451476
-0.134056 -0.509354 0.581954
-0.088835 -0.473058 -0.489019
-0.141663 0.473651 -0.463312
-0.139619 -0.475398 -0.530914
0.476241 -0.144749 -0.455195
-0.398006 -0.0666033 -0.495591
-0.11493 -0.416901 0.437079
-0.15825 -0.414299 -0.460562
-0.112896 0.511038 -0.480539
-0.141441 -0.484825 -0.513424
0.443682 -0.0364319 -0.476111
-0.577386 -0.157619 -0.402337
-0.0636301 -0.442186 0.510757
-0.106068 -0.441665 -0.521203
-0.154599 0.513178 -0.457109
-0.13299 -0.542209 -0.480318
0.479274 -0.0898523 -0.432687
-0.483246 -0.13968 -0.421626
-0.185592 -0.472206 0.481002
-0.184878 -0.504143 -0.522414
-0.109831 0.518856 -0.438086
-0.12827 -0.498754 -0.48676
0.454299 -0.166492 -0.465222
-0.467484 -0.107154 -0.435239
-0.111013 -0.44173 0.443838
-0.0887817 -0.429212 -0.555305
-0.143051 0.486181 -0.411286
-0.158666 -0.519852 -0.411371
0.51426 -0.154384 -0.44702
-0.499478 -0.125149 -0.426814
-0.163963 -0.461217 0.473927
-0.0308587 -0.404958 -0.468547
-0.104729 0.544921 -0.458642
-0.109493 -0.490372 -0.510706
0.560987 -0.129949 -0.426422
-0.479671 -0.0635715 -0.49936
-0.103847 -0.454448 0.50798
-0.0768924 -0.351297 -0.548206
-0.125938 0.446975 -0.414395
-0.0970599 -0.466462 -0.418232
0.48288 -0.110659 -0.502573
-0.528825 -0.138624 -0.356145
-0.174246 -0.375224 0.536008
-0.114261 -0.324602 -0.455141
-0.151349 0.532204 -0.372077
-0.0615733 -0.456128 -0.416587
0.464327 -0.100852 -0.367495
-0.494899 -0.167457 -0.430066
-0.127794 -0.449065 0.465781
-0.133241 -0.398872 -0.494967
-0.0726954 0.473744 -0.453832
-0.15257 -0.477776 -0.364064
0.5184 -0.103885 -0.400022
-0.452045 -0.170283 -0.337679
-0.123807 -0.367289 0.506267
-0.0992834 -0.411597 -0.496534
-0.15191 0.505991 -0.388759
-0.1574 -0.459826 -0.347873
0.490169 -0.181917 -0.429941
-0.49442 -0.0542589 -0.437169
-0.0523973 -0.339929 0.502853
-0.119576 -0.404698 -0.502565
-0.0918186 0.419375 -0.334303
-0.115522 -0.425269 -0.357297
0.531637 -0.0952577 -0.342814
-0.443281 -0.194366 -0.316936
-0.100975 -0.412637 0.505729
-0.1266 -0.381746 -0.463482
-0.0802039 0.465543 -0.373054
-0.0856162 -0.42917 -0.277979
0.412903 -0.0909635 -0.28425
-0.481723 -0.063167 -0.350988
-0.166104 -0.360081 0.553037
-0.0658733 -0.321396 -0.435207
-0.123437 0.527237 -0.322296
-0.130133 -0.500273 -0.304642
0.480421 -0.157798 -0.293873
-0.51118 -0.0956434 -0.377525
-0.0961358 -0.388406 0.476729
-0.14622 -0.349119 -0.497966
-0.186073 0.50779 -0.459496
-0.0582433 -0.51887 -0.317739
0.471416 -0.170415 -0.357289
-0.484475 -0.179769 -0.325225
-0.094813 -0.293662 0.475795
-0.126288 -0.306362 -0.4826
-0.102607 0.550793 -0.318938
-0.0943548 -0.555549 -0.323087
0.514906 -0.0619836 -0.358801
-0.500616 -0.121148 -0.364987
-0.096227 -0.314576 0.513227
-0.113664 -0.311634 -0.483679
-0.150099 0.575946 -0.272321
-0.126059 -0.537932 -0.353757
0.537297 -0.124688 -0.309666
-0.502773 -0.121845 -0.368858
-0.133823 -0.284656 0.535424
-0.133967 -0.330448 -0.460907
-0.0773687 0.546889 -0.279082
-0.0840191 -0.450043 -0.36111
0.536192 -0.115046 -0.363183
-0.523438 -0.122127 -0.282592
-0.15028 -0.314382 0.428092
-0.144096 -0.311616 -0.501765
-0.139343 0.55039 -0.362253
-0.0744383 -0.479977 -0.292379
0.551449 -0.150372 -0.347368
-0.50103 -0.147905 -0.290531
-0.100745 -0.354355 0.510279
-0.086866 -0.214775 -0.498449
-0.133507 0.54005 -0.286376
-0.206768 -0.458331 -0.341569
0.483069 -0.17483 -0.321748
-0.476396 -0.152707 -0.287847
-0.134174 -0.238757 0.500632
-0.0954319 -0.335379 -0.493983
-0.194048 0.483609 -0.305907
-0.143051 -0.47064 -0.33497
0.501267 -0.13733 -0.288338
-0.489039 -0.183689 -0.211082
-0.123883 -0.329103 0.498011
-0.107275 -0.229002 -0.514289
-0.119725 0.491962 -0.308384
-0.218569 -0.559082 -0.233385
0.498829 -0.082355 -0.278585
-0.401067 -0.160757 -0.262166
-0.160152 -0.201316 0.56985
-0.101559 -0.281438 -0.497506
-0.0953796 0.522199 -0.366767
-0.216779 -0.510307 -0.260207
0.547183 -0.127507 -0.209432
-0.500299 -0.13158 -0.321386
-0.101543 -0.276261 0.502249
-0.128897 -0.285992 -0.481655
-0.183965 0.532086 -0.289299
-0.173311 -0.519879 -0.311184
0.4748 -0.117403 -0.253775
-0.487393 -0.197652 -0.290298
-0.174977 -0.27195 0.528903
-0.122033 -0.245319 -0.512856
-0.161732 0.49352 -0.180866
-0.115257 -0.506001 -0.234786
0.498473 -0.22563 -0.184572
-0.437463 -0.127867 -0.192418
-0.112307 -0.225005 0.524775
-0.0758813 -0.210721 -0.533663
-0.03593 0.432522 -0.204033
-0.136796 -0.4895 -0.264305
0.528312 -0.128545 -0.182911
-0.555814 -0.106205 -0.203884
-0.13591 -0.21209 0.475966
-0.108159 -0.210514 -0.503051
-0.128027 0.46066 -0.259954
-0.0880229 -0.528657 -0.213006
0.491117 -0.122124 -0.177158
-0.557661 -0.0871885 -0.158056
-0.180826 -0.268735 0.492203
-0.101992 -0.19975 -0.470071
-0.0484677 0.556255 -0.192246
-0.138682 -0.534098 -0.184549
0.522058 -0.177688 -0.173179
-0.462783 -0.16642 -0.160437
-0.0975802 -0.189196 0.458375
-0.155691 -0.156895 -0.502569
-0.194182 0.500877 -0.170362
-0.103143 -0.534207 -0.212558
0.569076 -0.126674 -0.253061
-0.514611 -0.118348 -0.199455
-0.0677507 -0.257087 0.506375
-0.101415 -0.167977 -0.548711
-0.165605 0.564209 -0.16624
-0.150439 -0.507904 -0.196695
0.553539 -0.0437402 -0.202905
-0.515368 -0.0925083 -0.224914
-0.14843 -0.102845 0.553683
-0.110752 -0.217138 -0.469426
-0.126044 0.489675 -0.180654
-0.0724114 -0.476939 -0.109375
0.470172 -0.105111 -0.166147
-0.499735 -0.145801 -0.218025
-0.137535 -0.111507 0.530895
-0.153506 -0.124977 -0.479364
-0.135319 0.581605 -0.144986
-0.104717 -0.49344 -0.226427
0.523038 -0.166129 -0.138857
-0.534375 -0.143907 -0.137499
-0.13079 -0.165661 0.507161
-0.119148 -0.263301 -0.481684
-0.146632 0.52802 -0.0926145
-0.0627757 -0.467373 -0.130002
0.437516 -0.136116 -0.194593
-0.56328 -0.10361 -0.153385
-0.151713 -0.175104 0.458994
-0.0737724 -0.275576 -0.56967
-0.0769111 0.470854 -0.143921
-0.146685 -0.486991 -0.147926
0.571465 -0.192359 -0.126264
-0.583315 -0.109893 -0.125556
-0.150783 -0.140247 0.514536
-0.0928217 -0.147138 -0.545644
-0.156929 0.390829 -0.0903831
-0.119595 -0.519155 -0.171892
0.471277 -0.146323 -0.111819
-0.513265 -0.123231 -0.0682022
-0.174264 -0.0601075 0.415295
-0.0881117 -0.146463 -0.433275
-0.0914943 0.475959 -0.113488
-0.160507 -0.523431 -0.104455
0.486972 -0.141359 -0.159786
-0.567067 -0.152331 -0.123955
-0.138474 -0.112019 0.481234
-0.180774 -0.0950702 -0.513012
-0.109595 0.581153 -0.0787423
-0.0961687 -0.567026 -0.144138
0.587221 -0.136102 -0.0939515
-0.471042 -0.136732 -0.0788342
-0.190401 -0.0846805 0.455945
-0.153399 -0.100083 -0.530508
-0.20226 0.43622 -0.0806293
-0.101994 -0.494022 -0.111872
0.485006 -0.172821 -0.105691
-0.580914 -0.179138 -0.142338
-0.135263 -0.126629 0.472988
-0.122989 -0.0851641 -0.576368
-0.116556 0.466509 -0.120663
-0.0999535 -0.38964 -0.116926
0.492648 -0.124061 -0.0730615
-0.525724 -0.0805334 -0.165855
-0.123511 -0.115049 0.437768
-0.184856 -0.0727959 -0.442653
-0.0850091 0.503408 0.0113769
-0.110023 -0.51235 -0.0840058
0.539918 -0.132916 -0.115803
-0.504237 -0.123402 -0.0230539
-0.0966966 -0.113877 0.48919
-0.109356 -0.11103 -0.478336
-0.0949061 0.458641 -0.0414813
-0.102405 -0.50143 -0.0975711
0.57353 -0.152537 -0.1118
-0.547933 -0.0450099 -0.0978661
-0.134509 -0.0388727 0.564103
-0.126034 -0.0553007 -0.522117
-0.146933 0.488393 -0.0810987
-0.182487 -0.530104 -0.138097
0.482872 -0.109982 -0.0966818
-0.461922 -0.272542 -0.0598958
-0.101751 -0.0548845 0.510364
-0.0628725 -0.0797721 -0.51069
-0.119051 0.416474 -0.0647021
-0.136357 -0.432524 0.016472
0.595407 -0.140963 -0.0682044
-0.533879 -0.131219 -0.0594763
-0.0852437 -0.0174334 0.585134
-0.0943926 0.00210339 -0.451126
-0.114893 0.408513 -0.0394693
-0.195283 -0.494925 -0.053712
0.519055 -0.104082 -0.0645517
-0.527291 -0.146319 0.0215283
-0.185259 -0.0315884 0.484085
-0.123895 -0.071028 -0.502162
-0.0758714 0.590462 -0.0801783
-0.131743 -0.524837 -0.0575068
0.421829 -0.154924 -0.0543065
-0.479186 -0.138913 -0.0420184
-0.167808 -0.0139549 0.533652
-0.14043 0.0334341 -0.536053
-0.0797956 0.487044 0.00197924
-0.110836 -0.462459 -0.00217061
0.540282 -0.0774524 -0.0270871
-0.456702 -0.0982562 0.0248328
-0.145136 0.00764653 0.510324
-0.0697539 -0.00303393 -0.503328
-0.133425 0.466312 0.053422
-0.162569 -0.537358 0.0640172
0.512732 -0.103253 0.0373057
-0.447713 -0.121003 -0.0372478
-0.122078 0.00157601 0.531835
-0.132564 0.0641969 -0.550554
-0.139413 0.507542 -0.0259831
-0.12634 -0.53072 -0.0478219
0.509571 -0.171963 -0.0375306
-0.583224 -0.0961298 0.00223624
-0.110582 0.0504654 0.488697
-0.155621 0.0296846 -0.495643
-0.0383163 0.527161 -0.0204685
-0.20508 -0.525613 -0.00763697
0.433568 -0.158546 0.0737733
-0.433148 -0.0890892 0.0229941
-0.125121 0.00560106 0.545869
-0.108185 0.0169776 -0.528729
-0.0709039 0.515956 -0.0610601
-0.130546 -0.522527 0.0161783
0.518199 -0.132165 -0.0139699
-0.500333 -0.167369 0.0212119
-0.190288 0.0645456 0.527631
-0.137903 0.00872154 -0.494975
-0.138999 0.438576 -0.031986
-0.128592 -0.464207 0.0606912
0.539545 -0.120361 0.0508728
-0.475793 -0.0994938 0.0405267
-0.0538211 -0.0204759 0.495327
-0.13716 -0.012979 -0.51592
-0.0742231 0.467606 -0.0230423
-0.12625 -0.540719 0.0095272
0.500007 -0.117181 -0.010467
-0.495021 -0.128873 0.0970715
-0.118483 0.0701668 0.520705
-0.172067 0.114607 -0.564974
-0.0853799 0.549312 0.0848341
-0.118017 -0.506487 -0.0056464
0.546074 -0.174402 0.0596262
-0.484513 -0.136185 0.0788195
-0.163307 0.0381596 0.440333
-0.207209 0.0355878 -0.447744
-0.119954 0.512008 0.0591722
-0.133574 -0.433146 0.043003
0.509937 -0.125011 0.0221137
-0.433668 -0.12799 0.0140003
-0.0795091 0.116401 0.501498
-0.0953795 0.0864025 -0.475036
-0.154685 0.503841 0.0423075
-0.19252 -0.533702 0.13914
0.453553 -0.145127 0.0320198
-0.487577 -0.0623413 0.0537949
-0.118562 0.0945469 0.49525
-0.104635 0.0581014 -0.463569
-0.139298 0.538371 0.0366652
-0.0811232 -0.486816 0.12047
0.506793 -0.0986651 0.00655706
-0.581814 -0.107422 0.02364
-0.111689 0.107498 0.479555
-0.107782 0.120181 -0.497295
-0.188272 0.468863 0.0804004
-0.213045 -0.486818 0.0871724
0.565861 -0.157346 0.09751
-0.541349 -0.103485 0.14768
-0.146596 0.100621 0.472565
-0.119095 0.046396 -0.483293
-0.182984 0.518379 0.0830876
-0.177228 -0.473818 0.0653667
0.527384 -0.153834 0.151836
-0.542557 -0.123818 0.0434914
-0.118495 0.168426 0.49712
-0.180136 0.13057 -0.50723
-0.143342 0.546309 0.0964021
-0.154941 -0.480312 0.130409
0.570893 -0.151425 0.110396
-0.477108 -0.168513 0.156229
-0.0643726 0.0726005 0.462389
-0.097131 0.203255 -0.524615
-0.0973207 0.501856 0.154447
-0.107225 -0.497616 0.131916
0.503242 -0.122525 0.142185
-0.442428 -0.121656 0.149657
-0.0641638 0.160413 0.512077
-0.179762 0.128732 -0.5317
-0.151145 0.479901 0.0723171
-0.149211 -0.47788 0.134595
0.492878 -0.137961 0.0996915
-0.513435 -0.108591 0.157369
-0.188619 0.126968 0.43734
-0.111684 0.134811 -0.479531
-0.120859 0.392217 0.12988
-0.133073 -0.470638 0.16146
0.480301 -0.103906 0.141895
-0.521917 -0.166076 0.100006
-0.139649 0.166583 0.517806
-0.0791078 0.199344 -0.430437
-0.138908 0.508735 0.153653
-0.0956221 -0.474345 0.135141
0.539231 -0.12112 0.14199
-0.452487 -0.0913238 0.153298
-0.106599 0.117053 0.492003
-0.184312 0.122122 -0.495721
-0.168903 0.4598 0.162398
-0.160803 -0.510343 0.118101
0.479438 -0.149782 0.19216
-0.560084 -0.0406932 0.159745
-0.0649538 0.128148 0.457835
-0.0887416 0.21874 -0.489366
-0.157915 0.49137 0.182842
-0.119314 -0.465407 0.167341
0.588936 -0.0615285 0.184815
-0.456208 -0.0984237 0.109695
-0.0793204 0.162823 0.457184
-0.166142 0.177638 -0.478432
-0.125787 0.554489 0.13348
-0.137141 -0.52443 0.177886
0.544962 -0.114944 0.152672
-0.510153 -0.0427177 0.166195
-0.141344 0.17606 0.546643
-0.135289 0.156371 -0.547208
-0.0782049 0.58897 0.155306
-0.132559 -0.457111 0.162707
0.533085 -0.132269 0.154385
-0.469138 -0.100938 0.263383
-0.128828 0.171238 0.449889
-0.161493 0.100837 -0.498484
-0.149634 0.469693 0.263558
-0.127455 -0.467658 0.179738
0.430302 -0.166146 0.204524
-0.489297 -0.104105 0.194319
-0.218106 0.19639 0.470549
-0.0994636 0.214461 -0.469584
-0.0685856 0.525883 0.151199
-0.121182 -0.497688 0.192163
0.446463 -0.126595 0.249925
-0.503251 -0.0439403 0.258459
-0.135235 0.190369 0.446869
-0.030322 0.207247 -0.470376
-0.0880796 0.464029 0.195241
-0.136254 -0.534685 0.19296
0.481156 -0.147922 0.182645
-0.481685 -0.163464 0.161926
-0.130306 0.198267 0.514656
-0.0582551 0.232997 -0.442952
-0.173729 0.499639 0.196067
-0.141204 -0.525508 0.226388
0.569419 -0.118421 0.232655
-0.531558 -0.07584 0.157366
-0.104963 0.260765 0.506839
-0.145618 0.248421 -0.517492
-0.130636 0.530123 0.19606
-0.0951922 -0.543517 0.20979
0.533319 -0.119561 0.247846
-0.464504 -0.113495 0.228966
-0.0657528 0.264277 0.474034
-0.0600415 0.216402 -0.587091
-0.119678 0.505587 0.316681
-0.144271 -0.449067 0.225289
0.530325 -0.117325 0.258171
-0.492095 -0.213988 0.243458
-0.163006 0.178847 0.482249
-0.125174 0.303129 -0.491472
-0.0812282 0.45066 0.179497
-0.150822 -0.448275 0.218658
0.432363 -0.13599 0.201732
-0.494852 -0.0780727 0.210381
-0.058531 0.234084 0.536986
-0.148315 0.268106 -0.549922
-0.119196 0.495693 0.237281
-0.21112 -0.530186 0.243336
0.505293 -0.105377 0.199817
-0.508503 -0.130368 0.32217
-0.0639885 0.278398 0.512361
-0.0635381 0.224516 -0.557774
-0.0679302 0.519622 0.206917
-0.125534 -0.558653 0.321701
0.539348 -0.0889809 0.242077
-0.467063 -0.15099 0.250951
-0.088574 0.26349 0.427375
-0.0626129 0.323222 -0.509716
-0.11827 0.51188 0.300273
-0.100937 -0.482679 0.30533
0.59028 -0.125691 0.310265
-0.511911 -0.10739 0.279189
-0.100491 0.227877 0.482406
-0.0982152 0.284361 -0.540081
-0.192885 0.44982 0.27921
-0.141377 -0.469503 0.266105
0.469639 -0.145496 0.337205
-0.449087 -0.137637 0.281786
-0.171041 0.368878 0.432145
-0.142209 0.269282 -0.488317
-0.110626 0.500506 0.314678
-0.151451 -0.477638 0.310027
0.585085 -0.141849 0.27928
-0.495483 -0.151636 0.201527
-0.108517 0.293906 0.532605
-0.125815 0.389602 -0.445821
-0.115187 0.497743 0.278277
-0.0835763 -0.488165 0.345578
0.46142 -0.112893 0.335542
-0.555352 -0.200787 0.338799
-0.130604 0.367151 0.483268
-0.109997 0.285873 -0.469652
-0.162127 0.577041 0.264433
-0.0732826 -0.450678 0.324022
0.514047 -0.165429 0.352684
-0.550696 -0.116371 0.397298
-0.0703331 0.290332 0.507448
-0.122482 0.265842 -0.505791
-0.238438 0.472277 0.342093
-0.153093 -0.527066 0.366859
0.519463 -0.193797 0.328443
-0.535181 -0.13051 0.32993
-0.127196 0.32321 0.503897
-0.182758 0.317085 -0.477567
-0.106215 0.546364 0.316521
-0.12634 -0.492755 0.245469
0.506523 -0.185304 0.342533
-0.529306 -0.138458 0.285932
-0.112378 0.314484 0.553872
-0.200344 0.358502 -0.445443
-0.198765 0.471736 0.301126
-0.124522 -0.498367 0.353877
0.501033 -0.112484 0.353674
-0.519788 -0.200525 0.408927
-0.111366 0.353998 0.576549
-0.0674221 0.367802 -0.514478
-0.133421 0.450968 0.371959
-0.183113 -0.462505 0.376955
0.498665 -0.243766 0.423014
-0.562133 -0.174998 0.385486
-0.137062 0.371311 0.476638
-0.15529 0.308597 -0.55294
-0.125844 0.515939 0.331627
-0.100143 -0.473207 0.377941
0.574597 -0.093559 0.373127
-0.453613 -0.103557 0.383755
-0.104373 0.397876 0.503478
-0.176182 0.416618 -0.495955
-0.177933 0.482382 0.444591
-0.136608 -0.529202 0.361528
0.513749 -0.107445 0.444899
-0.565131 -0.0961849 0.412733
-0.136522 0.413502 0.45765
-0.149626 0.384391 -0.532087
-0.126457 0.46991 0.361427
-0.0982451 -0.514986 0.358107
0.462379 -0.114509 0.441653
-0.501724 -0.0900001 0.357682
-0.108586 0.417982 0.489504
-0.160201 0.379163 -0.498269
-0.144973 0.502064 0.454049
-0.193854 -0.519124 0.399097
0.547903 -0.100658 0.356349
-0.498363 -0.177113 0.366174
-0.162262 0.423044 0.429549
-0.0545665 0.365985 -0.55639
-0.155198 0.515788 0.414517
-0.119726 -0.418881 0.411794
0.488471 -0.139795 0.37051
-0.453761 -0.0749895 0.306377
-0.188593 0.421932 0.503497
-0.156005 0.392002 -0.479816
-0.120829 0.533429 0.480572
-0.206556 -0.52973 0.418276
0.559611 -0.13728 0.459492
-0.495624 -0.0729126 0.369786
-0.127328 0.422253 0.553128
-0.153329 0.428438 -0.534374
-0.14343 0.534136 0.455184
-0.160343 -0.494001 0.477107
0.594398 -0.131161 0.41972
-0.421634 -0.0850625 0.381731
-0.179397 0.384504 0.478875
-0.143747 0.489961 -0.470497
-0.0945564 0.480703 0.463592
-0.104168 -0.531016 0.537142
0.462454 -0.125316 0.400929
-0.525258 -0.166327 0.544236
-0.2143 0.541141 0.540696
-0.0692441 0.423801 -0.472295
-0.0627093 0.438997 0.437736
-0.181503 -0.522193 0.508497
0.517575 -0.142485 0.467903
-0.50993 -0.0799476 0.41973
-0.180143 0.497223 0.480984
-0.139524 0.420204 -0.527875
-0.0767944 0.516503 0.514536
-0.150896 -0.57396 0.4322
0.514303 -0.154049 0.522791
-0.563652 -0.147695 0.421628
-0.146071 0.44522 0.508152
-0.124396 0.527578 -0.478392
-0.138198 0.505114 0.543055
-0.146504 -0.543217 0.491286
0.414811 -0.145818 0.489987
-0.510671 -0.0574725 0.456527
-0.108247 0.503631 0.487273
-0.0823046 0.523031 -0.433223
-0.121386 0.480009 0.477666
-0.113612 -0.533158 0.522024
0.48924 -0.198496 0.439224
-0.546249 -0.103533 0.496409
-0.133503 0.549149 0.463081
-0.150428 0.48627 -0.476876
-0.0690479 0.517884 0.463719
-0.103325 -0.555933 0.482263
0.40961 -0.124955 0.52833
-0.542154 -0.128277 0.47144
-0.10551 -0.508516 0.497693
-0.155303 -0.500294 -0.530188
-0.11498 0.588101 -0.588738
-0.19287 -0.41609 -0.489736
0.469707 -0.144735 -0.514061
-0.58025 -0.147525 -0.491859
-0.202544 -0.468802 0.400184
-0.0705528 -0.488537 -0.628192
-0.107246 0.411029 -0.430822
-0.106402 -0.494091 -0.504652
0.443814 -0.0858964 -0.573431
-0.471852 -0.0595798 -0.537575
-0.179228 -0.474256 0.514374
-0.137311 -0.477529 -0.542465
-0.082958 0.49374 -0.52655
-0.166476 -0.408365 -0.48107
0.536746 -0.149043 -0.444199
-0.474876 -0.137703 -0.465346
-0.130314 -0.442086 0.527734
-0.0550109 -0.547606 -0.533687
-0.146786 0.525138 -0.464884
-0.0858101 -0.492739 -0.477942
0.532744 -0.0755564 -0.489474
-0.473582 -0.0722089 -0.427469
-0.157459 -0.444308 0.515426
-0.118439 -0.414418 -0.425857
-0.160294 0.514761 -0.496324
-0.134901 -0.513751 -0.477212
0.522994 -0.160481 -0.499107
-0.488647 -0.115129 -0.409601
-0.141005 -0.366979 0.518484
-0.119898 -0.403555 -0.460906
-0.171794 0.449199 -0.459278
-0.0926072 -0.596346 -0.423625
0.566989 -0.097139 -0.391897
-0.487995 -0.124169 -0.388565
-0.127336 -0.35837 0.506414
-0.0673381 -0.441553 -0.487785
-0.119016 0.560514 -0.467245
-0.140538 -0.515313 -0.431488
0.545286 -0.097463 -0.443991
-0.398185 -0.0932902 -0.421171
-0.0788687 -0.398773 0.429855
-0.0791495 -0.369294 -0.475493
-0.0759805 0.550988 -0.502958
-0.158847 -0.487902 -0.429835
0.456087 -0.0988761 -0.507068
-0.538426 -0.0899419 -0.439254
-0.107672 -0.333332 0.572441
-0.140912 -0.432203 -0.465103
-0.0777352 0.544941 -0.46364
-0.130742 -0.439022 -0.438446
0.487613 -0.0803944 -0.379699
-0.462321 -0.11126 -0.447446
-0.138333 -0.426994 0.593709
-0.0995016 -0.439859 -0.492422
-0.000544712 0.517074 -0.469108
-0.146844 -0.434569 -0.422987
0.476092 -0.0782655 -0.40362
-0.53482 -0.126109 -0.419338
-0.0439969 -0.33338 0.467313
-0.0856966 -0.413397 -0.534112
-0.0920411 0.458539 -0.34877
-0.056615 -0.498674 -0.348707
0.444627 -0.106842 -0.408264
-0.519485 -0.177353 -0.379221
-0.0837057 -0.302278 0.528721
-0.134961 -0.310664 -0.537034
-0.0104254 0.532056 -0.420097
-0.0681507 -0.520748 -0.392948
0.583066 -0.138165 -0.436307
-0.531141 -0.127388 -0.360439
-0.178495 -0.355326 0.467857
-0.0958518 -0.335746 -0.504275
-0.21601 0.51794 -0.475178
-0.0813961 -0.547064 -0.443299
0.5017 -0.106748 -0.32197
-0.493068 -0.115697 -0.349246
-0.157353 -0.358639 0.484913
-0.0722739 -0.331967 -0.527887
-0.113219 0.507148 -0.365312
-0.0945187 -0.567419 -0.326591
0.477637 -0.230585 -0.378047
-0.490452 -0.168562 -0.411906
-0.120055 -0.41506 0.59917
-0.160839 -0.425908 -0.4412
-0.0764067 0.516875 -0.372078
-0.108518 -0.483632 -0.318791
0.461891 -0.123004 -0.408932
-0.491613 -0.114841 -0.353361
-0.122869 -0.35392 0.538159
-0.195218 -0.314755 -0.362547
-0.0855593 0.527579 -0.39659
-0.145247 -0.526853 -0.336786
0.571504 -0.154183 -0.344236
-0.493346 -0.112949 -0.361562
-0.131503 -0.328859 0.596061
-0.0643048 -0.343821 -0.513835
-0.0563844 0.490685 -0.329535
-0.0678199 -0.524231 -0.257107
0.458549 -0.105534 -0.353678
-0.515235 -0.102729 -0.386106
-0.110698 -0.273668 0.534682
-0.145411 -0.234401 -0.486015
-0.134768 0.512129 -0.321989
-0.121626 -0.440803 -0.341068
0.396017 -0.110262 -0.279389
-0.529132 -0.0402106 -0.305445
-0.125756 -0.287502 0.491121
-0.161777 -0.384336 -0.451008
-0.0564763 0.495751 -0.25555
-0.147507 -0.498896 -0.306591
0.572524 -0.171555 -0.301956
-0.535566 -0.121527 -0.236927
-0.106435 -0.323173 0.561466
-0.107795 -0.333638 -0.471585
-0.130428 0.480448 -0.327915
-0.0963148 -0.540023 -0.323808
0.459729 -0.10677 -0.28835
-0.465668 -0.170735 -0.268362
-0.0803192 -0.303097 0.49414
-0.167309 -0.36256 -0.51609
-0.102385 0.51245 -0.316616
-0.142809 -0.479644 -0.24343
0.504737 -0.145895 -0.222723
-0.493379 -0.0753502 -0.214331
-0.105646 -0.372531 0.575448
-0.0641115 -0.273669 -0.503331
-0.124414 0.526621 -0.316629
-0.06595 -0.46918 -0.329672
0.481403 -0.138825 -0.239507
-0.50577 -0.144074 -0.343329
-0.19094 -0.278837 0.462569
-0.152114 -0.298125 -0.513434
-0.061293 0.470195 -0.250049
-0.147413 -0.44183 -0.255178
0.513797 -0.166718 -0.275988
-0.505419 -0.0561245 -0.330805
-0.0514613 -0.199021 0.539012
-0.17188 -0.213061 -0.565771
-0.0264955 0.515942 -0.254349
-0.189152 -0.553055 -0.286214
0.498671 -0.0923941 -0.242263
-0.484131 -0.0863175 -0.264797
-0.000502293 -0.217765 0.501831
-0.100897 -0.295929 -0.468946
-0.115305 0.491176 -0.309723
-0.0493692 -0.49592 -0.151231
0.49405 -0.122774 -0.24051
-0.502114 -0.192351 -0.270268
-0.0738074 -0.256331 0.478273
-0.129931 -0.186738 -0.557109
-0.163892 0.542791 -0.165927
-0.193102 -0.473353 -0.386162
0.446669 -0.0809814 -0.261896
-0.516209 -0.149028 -0.266546
-0.178504 -0.216779 0.413453
-0.17361 -0.25283 -0.469154
-0.194751 0.529532 -0.304438
-0.085933 -0.52107 -0.27482
0.511623 -0.122352 -0.254411
-0.479874 -0.0471088 -0.280074
-0.117816 -0.206627 0.464739
-0.0617499 -0.224145 -0.479434
-0.10389 0.452565 -0.249693
-0.109714 -0.468464 -0.229114
0.551184 -0.0502687 -0.299945
-0.562123 -0.136322 -0.188458
-0.134502 -0.262169 0.420087
-0.0841562 -0.246496 -0.539544
-0.112941 0.449525 -0.215466
-0.0950655 -0.459341 -0.30392
0.516965 -0.211403 -0.209737
-0.515708 -0.0918939 -0.278825
-0.106962 -0.228807 0.548898
-0.248486 -0.20554 -0.479836
-0.103242 0.520714 -0.13824
-0.0134064 -0.465473 -0.255269
0.464635 -0.110684 -0.194184
-0.455649 -0.0484553 -0.225116
-0.0559205 -0.178077 0.53831
-0.109071 -0.12966 -0.508324
-0.094216 0.524754 -0.20961
-0.0719347 -0.509839 -0.21535
0.451325 -0.198977 -0.228129
-0.552823 -0.140191 -0.265687
-0.0703064 -0.196413 0.550655
-0.159447 -0.139893 -0.562403
-0.193769 0.504836 -0.143304
-0.101958 -0.509805 -0.0828315
0.455944 -0.113221 -0.233296
-0.460828 -0.138944 -0.16922
-0.0504637 -0.189469 0.508702
-0.0694983 -0.165348 -0.463449
-0.185507 0.496233 -0.205242
-0.143085 -0.534019 -0.157212
0.484203 -0.0618299 -0.107673
-0.557309 -0.0684767 -0.187635
-0.112032 -0.240465 0.512777
-0.0735932 -0.176116 -0.484488
-0.144263 0.615599 -0.154502
-0.139906 -0.457604 -0.155772
0.541278 -0.12028 -0.160669
-0.541452 -0.112262 -0.1823
-0.0704283 -0.188269 0.500363
-0.129075 -0.174398 -0.477351
-0.161331 0.518788 -0.196482
-0.0765894 -0.478878 -0.192529
0.482384 0.0110552 -0.188127
-0.54358 -0.0716658 -0.178256
-0.119067 -0.202166 0.486234
-0.177623 -0.133402 -0.526336
-0.0770333 0.409084 -0.138229
-0.168503 -0.578398 -0.0875876
0.454658 -0.147385 -0.148852
-0.499331 -0.108814 -0.147572
-0.119415 -0.195985 0.474425
-0.14132 -0.0851476 -0.582964
-0.102379 0.500323 -0.166993
-0.128902 -0.449987 -0.0989596
0.445138 -0.112999 -0.182987
-0.503168 -0.109936 -0.0835332
-0.123004 -0.068224 0.474097
-0.0910847 -0.176446 -0.545774
-0.147852 0.477131 -0.111011
-0.197961 -0.518891 -0.07875
0.453966 -0.103081 -0.0958209
-0.47016 -0.124843 -0.0969615
-0.0646873 -0.0432384 0.483718
-0.124353 -0.125152 -0.580342
-0.147166 0.514293 -0.124842
-0.125813 -0.513127 -0.167536
0.457789 -0.138857 -0.138987
-0.528063 -0.0918926 -0.168146
-0.0980955 -0.133997 0.47281
-0.130929 -0.0876508 -0.471315
-0.0387125 0.482718 -0.0773991
-0.169013 -0.563801 -0.0627227
0.53276 -0.158609 -0.0851046
-0.531062 -0.0730944 -0.0764649
-0.103709 -0.0923132 0.448773
-0.143529 -0.109628 -0.440064
-0.0756796 0.513631 -0.0638059
-0.0509826 -0.531884 -0.0942704
0.497359 -0.0999836 -0.0501524
-0.464694 -0.188035 -0.0717344
-0.163291 -0.0983364 0.526244
-0.179301 -0.119262 -0.506896
-0.108333 0.534368 -0.110129
-0.180556 -0.474367 -0.0514731
0.492269 -0.0136949 -0.145327
-0.499355 -0.0692701 -0.00858084
-0.129795 -0.039678 0.5351
-0.138397 -0.020253 -0.476258
-0.108137 0.50435 -0.0852617
-0.108899 -0.548894 -0.0273956
0.535629 -0.0349181 -0.090673
-0.409217 -0.135674 -0.117549
-0.121259 -0.0950587 0.469911
-0.064398 0.0311363 -0.561502
-0.155706 0.421338 -0.0561953
-0.133719 -0.571285 -0.0452504
0.490965 -0.144664 0.00744118
-0.503609 -0.169645 -0.120443
-0.106252 -0.125641 0.452743
-0.0982134 -0.103378 -0.447547
-0.0802394 0.563495 -0.0793405
-0.113732 -0.476077 -0.088622
0.40341 -0.109191 -0.0641927
-0.507357 -0.0496 -0.0177613
-0.110166 -0.0336331 0.448632
-0.078552 -0.0345723 -0.462449
-0.121747 0.459128 -0.00847791
-0.110954 -0.469394 -0.0158167
0.550624 -0.137526 -0.0192032
-0.487271 -0.133862 -0.0301033
-0.0973829 0.0351714 0.440694
-0.131064 -0.0541328 -0.474254
-0.148449 0.479651 -0.074307
-0.0549909 -0.509957 -0.0438651
0.505673 -0.153295 -0.0704869
-0.563929 -0.0621621 -0.0479396
-0.0936812 -0.00930189 0.515759
-0.0549514 -0.0216912 -0.533776
-0.0996113 0.471495 -0.01164
-0.0520969 -0.582566 0.00213816
0.485268 -0.0909734 -0.0551919
-0.448476 -0.0621747 -0.0497778
-0.135982 -0.0591028 0.497583
-0.120171 0.00423747 -0.479279
-0.0797115 0.563117 -0.0140359
-0.105886 -0.472808 -0.0372262
0.472108 -0.124763 -0.0166705
-0.47613 -0.0295084 -0.0160977
-0.0817752 0.0233938 0.504937
-0.131916 -0.0258308 -0.461894
-0.200974 0.465656 -0.0617671
-0.155832 -0.551464 -0.0248294
0.450808 -0.190597 0.00442185
-0.524511 -0.0604783 -0.0622441
-0.10005 -0.0433041 0.537313
-0.133814 0.047371 -0.484616
-0.182146 0.501662 0.0482238
-0.0873981 -0.472717 -0.07032
0.473842 -0.109015 0.0645923
-0.591223 -0.0695988 -0.0180904
-0.107305 0.0429708 0.529844
-0.157548 -0.0549169 -0.517892
-0.104199 0.484473 0.0719725
-0.100098 -0.503224 0.0668298
0.476348 -0.125123 0.059094
-0.486472 -0.0997023 0.0401674
-0.118027 0.100765 0.406119
-0.148896 -0.0495254 -0.538099
-0.122439 0.415097 0.0183285
-0.0859607 -0.472324 -0.0410977
0.447836 -0.0737038 -0.00331398
-0.485982 -0.136232 0.0636365
-0.0849255 -0.0281376 0.509264
-0.118135 0.113124 -0.528062
-0.0954231 0.498772 0.111848
-0.0835795 -0.473759 0.0822989
0.448136 -0.116694 0.0568482
-0.484811 -0.0862019 0.065155
-0.0942404 0.0909068 0.550922
-0.211711 0.109332 -0.517304
-0.131895 0.506068 0.105114
-0.149852 -0.474095 0.0260872
0.518051 -0.0787687 0.0176283
-0.464528 -0.147163 0.0512833
-0.149268 0.0355107 0.508719
-0.0799955 0.028369 -0.429689
-0.101964 0.501994 0.0287862
-0.110472 -0.545977 0.00466948
0.475363 -0.108994 0.0308344
-0.473031 -0.079004 0.0462276
-0.0828221 0.0447362 0.521502
-0.0453397 0.0645233 -0.399266
-0.0972482 0.443111 0.0574174
-0.133919 -0.468004 0.0627132
0.425391 -0.027818 0.0271614
-0.533282 -0.111712 0.0573625
-0.146491 0.0795683 0.544686
-0.0803905 0.0525254 -0.577101
-0.065824 0.444304 0.0931351
-0.155621 -0.50135 0.0660116
0.4759 -0.142918 0.119298
-0.48738 -0.0409537 0.123987
-0.0904946 0.218186 0.546987
-0.0656912 0.0920698 -0.542621
-0.0629213 0.552068 0.0496793
-0.0707508 -0.562294 0.110374
0.49898 -0.0818368 0.0687643
-0.467006 -0.118109 0.0828293
-0.108848 0.144173 0.470998
-0.13611 0.0564162 -0.491411
-0.191179 0.520956 0.0992843
-0.146884 -0.528298 0.093363
0.437629 -0.0929867 0.0642488
-0.501581 -0.0748368 0.0952454
-0.0994771 0.125636 0.479018
-0.167228 0.102831 -0.466863
-0.100753 0.510539 0.0922786
-0.0881402 -0.4853 0.0383563
0.482921 -0.13117 0.112474
-0.506291 -0.0618512 0.107158
-0.0831667 0.116233 0.519576
-0.0935514 0.101294 -0.480343
-0.132529 0.510962 0.137269
-0.157328 -0.469994 0.170379
0.607339 -0.164266 0.157372
-0.510196 -0.123089 0.0863792
-0.113347 0.165973 0.518143
-0.0882638 0.110339 -0.439868
-0.0935009 0.521253 0.137525
-0.128995 -0.454649 0.174671
0.494714 -0.107775 0.0883271
-0.482052 -0.11687 0.200973
-0.132934 0.126766 0.424847
-0.149389 0.104733 -0.540927
-0.114351 0.510943 0.161883
-0.0917972 -0.505609 0.205838
0.486875 -0.113667 0.163803
-0.537867 -0.179392 0.143665
-0.153718 0.101922 0.518815
-0.11455 0.0874135 -0.497505
-0.0916689 0.49857 0.127772
-0.119327 -0.54324 0.118351
0.516461 -0.129842 0.139349
-0.522237 -0.102366 0.113975
-0.209499 0.223091 0.47559
-0.110738 0.20626 -0.474415
-0.142292 0.499691 0.159865
-0.13899 -0.463272 0.187782
0.504785 -0.0838849 0.136193
-0.45448 -0.0910611 0.18151
-0.178316 0.160435 0.489578
-0.189954 0.171127 -0.486427
-0.139077 0.548565 0.200219
-0.12654 -0.518326 0.144125
0.506511 -0.195949 0.152002
-0.546443 -0.121109 0.154572
-0.193257 0.190234 0.537984
-0.128993 0.243371 -0.466699
-0.077113 0.501017 0.186794
-0.15678 -0.456412 0.137626
0.530825 -0.0906932 0.233442
-0.50544 -0.108685 0.169947
-0.0647878 0.12327 0.452341
-0.173087 0.183552 -0.457521
-0.142734 0.511036 0.256959
-0.0326886 -0.429914 0.162986
0.499756 -0.155517 0.21381
-0.566109 -0.0974815 0.228429
-0.101781 0.176503 0.503559
-0.151302 0.279176 -0.422883
-0.120351 0.533226 0.199402
-0.150201 -0.505231 0.254968
0.51487 -0.124646 0.150969
-0.480864 -0.125809 0.268285
-0.0776791 0.256138 0.464871
-0.113996 0.244387 -0.492934
-0.0875799 0.504146 0.179676
-0.115083 -0.569896 0.27547
0.474247 -0.151552 0.146803
-0.487909 -0.0910304 0.217459
-0.121497 0.133224 0.573022
-0.0569861 0.270743 -0.484144
-0.0801054 0.505115 0.203776
-0.101121 -0.522336 0.236243
0.445115 -0.0623411 0.298128
-0.511668 -0.219447 0.188469
-0.0528084 0.24757 0.490074
-0.0711733 0.259549 -0.53604
-0.0628248 0.500403 0.290516
-0.115676 -0.501423 0.23429
0.526693 -0.213547 0.234469
-0.51264 -0.110279 0.234296
-0.0998701 0.284888 0.46063
-0.0777995 0.264972 -0.50943
-0.0917571 0.465532 0.184503
-0.0658611 -0.502395 0.256249
0.598838 -0.0567949 0.186378
-0.550984 -0.155958 0.306602
-0.0739894 0.313595 0.413352
-0.124924 0.274924 -0.474255
-0.0633716 0.536135 0.207495
-0.105792 -0.445465 0.295482
0.505649 -0.182728 0.30087
-0.441655 -0.129213 0.208059
-0.17168 0.271225 0.513951
-0.11587 0.227323 -0.471768
-0.133296 0.50913 0.25663
-0.072515 -0.519351 0.284724
0.467008 -0.084629 0.307166
-0.415098 -0.168013 0.299889
-0.100255 0.272821 0.603425
-0.114377 0.291557 -0.584096
-0.182942 0.500303 0.271583
-0.0974324 -0.522913 0.290947
0.495321 -0.185436 0.227079
-0.54113 -0.171891 0.259207
-0.0716233 0.292844 0.484561
-0.168525 0.353078 -0.466789
-0.148958 0.498493 0.250439
-0.125005 -0.504993 0.208468
0.554435 -0.16543 0.306404
-0.524603 -0.0875788 0.306374
-0.134532 0.299193 0.48216
-0.105485 0.27878 -0.46711
-0.0532423 0.4824 0.260353
-0.0656501 -0.513065 0.314032
0.562221 -0.0932602 0.292126
-0.516395 -0.179944 0.287774
-0.200306 0.237196 0.457891
-0.0842508 0.298689 -0.420305
-0.149898 0.513536 0.326214
-0.141044 -0.421141 0.218611
0.473576 -0.0240529 0.321444
-0.479524 -0.060853 0.287379
-0.0817539 0.273072 0.539075
-0.0738234 0.254481 -0.536469
-0.116211 0.474371 0.340877
-0.0984175 -0.456036 0.219435
0.482697 -0.135785 0.374763
-0.457249 -0.0863988 0.374827
-0.128953 0.306046 0.499495
-0.111973 0.293442 -0.539055
-0.105075 0.407622 0.303709
-0.126827 -0.510785 0.345631
0.552121 -0.0658286 0.329785
-0.643931 -0.11384 0.308731
-0.12267 0.323347 0.510016
-0.120824 0.38511 -0.474845
-0.0714708 0.478046 0.316426
-0.11238 -0.466864 0.326135
0.423349 -0.128913 0.279967
-0.521635 -0.121359 0.301757
-0.179991 0.312764 0.539907
-0.088331 0.395406 -0.467637
-0.17722 0.520678 0.28904
-0.130395 -0.488819 0.319064
0.487916 -0.141176 0.340085
-0.50125 -0.157432 0.39179
-0.0632308 0.429139 0.482831
-0.137455 0.377695 -0.537197
-0.0812232 0.485214 0.356706
-0.0947648 -0.489109 0.281493
0.486324 -0.167816 0.363272
-0.404098 -0.166162 0.436935
-0.115062 0.386866 0.528549
-0.0787407 0.444994 -0.493201
-0.0636758 0.605149 0.369695
-0.196723 -0.496251 0.373123
0.53499 -0.137991 0.335013
-0.51163 -0.102934 0.375502
-0.0252272 0.317596 0.477295
-0.142256 0.384813 -0.483273
-0.102397 0.461792 0.318408
-0.136795 -0.529483 0.373653
0.594434 -0.0512051 0.324774
-0.554554 -0.12009 0.364616
-0.131192 0.39205 0.568619
-0.147139 0.382866 -0.501194
-0.168898 0.558498 0.407328
-0.0544974 -0.570837 0.363944
0.494672 -0.0646264 0.373357
-0.530812 -0.073801 0.338692
-0.18578 0.393552 0.536827
-0.191196 0.374985 -0.548094
-0.127612 0.589894 0.382934
-0.0561611 -0.552694 0.410538
0.43208 -0.129461 0.421804
-0.503078 -0.104006 0.336459
-0.0871091 0.374673 0.48974
-0.0945099 0.354298 -0.506296
-0.0786508 0.496758 0.432208
-0.138405 -0.497776 0.356359
0.534165 -0.136813 0.41851
-0.527012 -0.213292 0.356621
-0.187009 0.399638 0.47633
-0.0795824 0.40152 -0.542057
-0.168939 0.473185 0.381096
-0.144189 -0.521973 0.441867
0.484907 -0.101296 0.366199
-0.480118 -0.20261 0.406862
-0.128889 0.476734 0.434749
-0.101082 0.414291 -0.542279
-0.133605 0.54851 0.438012
-0.0888647 -0.535549 0.449716
0.520628 -0.151477 0.468795
-0.422013 -0.110352 0.505422
-0.111229 0.414698 0.542264
-0.0990713 0.378724 -0.556136
-0.128049 0.558561 0.457859
-0.097734 -0.502633 0.449775
0.569292 -0.164654 0.489682
-0.420263 -0.0409582 0.418572
-0.144226 0.413421 0.501189
-0.136411 0.406808 -0.53779
-0.110983 0.556738 0.427498
-0.127989 -0.526317 0.384113
0.504833 -0.155387 0.483554
-0.482418 -0.154819 0.474001
-0.164217 0.417245 0.546934
-0.199336 0.436117 -0.52459
-0.0796234 0.589196 0.348019
-0.050887 -0.470803 0.463256
0.516584 -0.134444 0.456186
-0.485899 -0.0734517 0.481484
-0.0449127 0.489275 0.502376
-0.102594 0.417752 -0.442503
-0.12634 0.513969 0.414762
-0.0919184 -0.43907 0.512669
0.462422 -0.0939216 0.454312
-0.593077 -0.0852331 0.461328
-0.057186 0.398641 0.502279
-0.0731481 0.420106 -0.511146
-0.10497 0.509822 0.444829
-0.0689599 -0.468104 0.473928
0.510262 -0.129147 0.507086
-0.433861 -0.0674509 0.416318
-0.0930136 0.416688 0.524278
-0.0901228 0.465462 -0.552956
-0.112755 0.462116 0.488546
-0.109664 -0.493241 0.480402
0.406678 -0.172517 0.44915
-0.509938 -0.0600486 0.520795
-0.147365 0.521419 0.465849
-0.0808576 0.568596 -0.482888
-0.0696192 0.479107 0.517947
-0.148132 -0.532168 0.541725
0.454236 -0.0915877 0.540489
-0.482155 -0.134597 0.460345
-0.0784819 0.483751 0.469897
-0.0791715 0.498557 -0.48127
-0.115918 0.489231 0.478725
-0.155413 -0.460883 0.497827
0.491087 -0.051758 0.537201
-0.50603 -0.169197 0.549162
-0.115944 -0.496112 0.518383
-0.0984282 -0.503008 -0.431874
-0.162136 0.491239 -0.532276
-0.0828117 -0.505998 -0.558636
0.488301 -0.0598137 -0.511087
-0.432944 -0.119228 -0.446009
-0.178588 -0.451558 0.463004
-0.0894989 -0.507047 -0.444993
-0.0612054 0.515228 -0.454886
-0.146776 -0.562758 -0.417257
0.508679 -0.148719 -0.459429
-0.339621 -0.17888 -0.57626
-0.121411 -0.534895 0.509407
-0.154653 -0.519465 -0.535051
-0.174705 0.486204 -0.433392
-0.0827477 -0.521548 -0.499843
0.446007 -0.187003 -0.432591
-0.482094 -0.157514 -0.572613
-0.108341 -0.449304 0.528925
-0.0915674 -0.477875 -0.520381
-0.103327 0.45073 -0.435294
-0.0767846 -0.471396 -0.418809
0.522736 -0.0699716 -0.520604
-0.474472 -0.153972 -0.411446
-0.0556157 -0.368154 0.448267
-0.0952228 -0.39362 -0.546119
-0.128666 0.442764 -0.466367
-0.126895 -0.53782 -0.411701
0.476623 -0.139748 -0.47929
-0.505003 -0.103208 -0.455504
-0.129758 -0.407225 0.463403
-0.146104 -0.509317 -0.490486
-0.119951 0.463179 -0.445775
-0.0620308 -0.526898 -0.461254
0.483264 -0.0501748 -0.378127
-0.512983 -0.101739 -0.434403
-0.0602815 -0.457915 0.494246
-0.104006 -0.395769 -0.472602
-0.031271 0.512204 -0.503248
-0.0665262 -0.593895 -0.429137
0.529947 -0.10847 -0.386539
-0.559023 -0.0905381 -0.443676
-0.118593 -0.417646 0.510506
-0.10365 -0.502795 -0.578548
-0.0625876 0.497431 -0.462292
-0.107625 -0.459275 -0.370118
0.45308 -0.116752 -0.444973
-0.523343 -0.112921 -0.427217
-0.0755909 -0.451667 0.44205
-0.136362 -0.475849 -0.44839
-0.115604 0.45413 -0.404007
-0.131872 -0.45216 -0.404103
0.554153 -0.143082 -0.367867
-0.495117 -0.111658 -0.436832
-0.0696949 -0.436158 0.470176
-0.130761 -0.354453 -0.488046
-0.141108 0.516547 -0.439485
-0.128087 -0.454969 -0.452797
0.486785 -0.166684 -0.410407
-0.475648 -0.105499 -0.406239
-0.183582 -0.377073 0.458273
-0.158757 -0.397376 -0.516501
-0.122452 0.536201 -0.382809
-0.160404 -0.530623 -0.364585
0.556719 -0.0714517 -0.419155
-0.483866 -0.048134 -0.36227
-0.101806 -0.270763 0.568679
-0.0759892 -0.429427 -0.546945
-0.0932754 0.460177 -0.417038
-0.100784 -0.544133 -0.361336
0.498298 -0.09376 -0.324081
-0.549184 -0.167769 -0.438289
-0.0937051 -0.362002 0.487062
-0.166571 -0.43451 -0.596186
-0.195738 0.55401 -0.405864
-0.134546 -0.486811 -0.414302
0.535924 -0.110802 -0.392993
-0.501745 -0.0684945 -0.29405
-0.108639 -0.438363 0.448712
-0.108371 -0.382291 -0.493243
-0.159493 0.504978 -0.402887
-0.120599 -0.505803 -0.432815
0.512849 -0.102742 -0.339525
-0.484234 -0.203866 -0.323315
-0.191992 -0.323876 0.519426
-0.0614375 -0.379519 -0.511213
-0.0872274 0.511402 -0.364997
-0.117878 -0.486643 -0.313801
0.512078 -0.0619587 -0.326229
-0.547109 -0.138506 -0.352844
-0.0363048 -0.35385 0.499593
-0.102311 -0.316637 -0.512277
-0.123918 0.495394 -0.365123
-0.0430275 -0.465084 -0.340823
0.496277 -0.15257 -0.345143
-0.478334 -0.0872737 -0.369082
-0.123728 -0.246241 0.508762
-0.132812 -0.356447 -0.46957
-0.165609 0.509726 -0.360595
-0.111398 -0.519654 -0.321244
0.56682 -0.0944514 -0.335626
-0.487931 -0.113786 -0.388161
-0.0951106 -0.299055 0.475195
-0.110942 -0.318514 -0.495996
-0.0593539 0.520399 -0.310713
-0.0941672 -0.529732 -0.353939
0.499433 -0.109606 -0.317345
-0.494708 -0.0116488 -0.299394
-0.112369 -0.353426 0.52404
-0.0826256 -0.330816 -0.374647
-0.130998 0.509702 -0.258788
-0.123916 -0.479206 -0.388917
0.482659 -0.0903473 -0.309712
-0.511867 -0.0976599 -0.329466
-0.0522651 -0.281445 0.46459
-0.105094 -0.311104 -0.54792
-0.133551 0.458372 -0.34557
-0.0747164 -0.4595 -0.281878
0.479797 -0.132543 -0.287526
-0.567357 -0.0900602 -0.284461
-0.0572082 -0.222733 0.431346
-0.0664123 -0.229516 -0.454415
-0.125875 0.513118 -0.290767
-0.152954 -0.485455 -0.342318
0.450106 -0.106498 -0.331412
-0.479728 -0.202978 -0.310066
-0.166159 -0.285323 0.474475
-0.10718 -0.274411 -0.527728
-0.163933 0.452845 -0.329093
-0.0825284 -0.497785 -0.256708
0.491206 -0.0701738 -0.294927
-0.572919 -0.0977662 -0.332545
-0.123402 -0.26633 0.492002
-0.0853922 -0.318057 -0.49063
-0.117556 0.503376 -0.284148
-0.13863 -0.520466 -0.308638
0.418936 -0.148093 -0.299633
-0.475565 -0.200475 -0.333945
-0.0335186 -0.311896 0.50267
-0.067247 -0.258717 -0.545351
-0.0569456 0.570778 -0.215687
-0.0439794 -0.443924 -0.234842
0.572214 -0.103313 -0.190941
-0.475569 -0.0981947 -0.23381
-0.106145 -0.197719 0.525374
-0.109579 -0.298454 -0.453953
-0.0072435 0.48806 -0.296193
-0.143295 -0.537463 -0.262414
0.46284 -0.11164 -0.29501
-0.517543 -0.104547 -0.303595
-0.0708444 -0.249524 0.45882
-0.0857611 -0.185107 -0.480131
-0.149338 0.477419 -0.206779
-0.141691 -0.420989 -0.232598
0.439084 -0.0895859 -0.171236
-0.492517 -0.158273 -0.239746
-0.108736 -0.239984 0.485933
-0.0846612 -0.195437 -0.491589
-0.0214656 0.411698 -0.260397
-0.0505978 -0.471647 -0.22197
0.476664 -0.0706529 -0.256047
-0.572217 -0.0828131 -0.191988
-0.160113 -0.213512 0.537004
-0.0647661 -0.223894 -0.504308
-0.0361048 0.465103 -0.217031
-0.0960604 -0.537547 -0.194319
0.449434 -0.134661 -0.23371
-0.478691 -0.080019 -0.159599
-0.129713 -0.280999 0.52032
-0.178423 -0.186065 -0.471238
-0.153476 0.542342 -0.214357
-0.13226 -0.505643 -0.230032
0.507912 -0.0493726 -0.212299
-0.496251 -0.10407 -0.205163
-0.11842 -0.198963 0.533016
-0.152103 -0.220355 -0.486169
-0.125422 0.503337 -0.174454
-0.147909 -0.545174 -0.238366
0.514813 -0.117858 -0.259973
-0.507514 -0.0632644 -0.227665
-0.154574 -0.200609 0.546796
-0.113566 -0.234043 -0.552448
-0.0941641 0.562157 -0.164458
-0.0783888 -0.506424 -0.219992
0.451369 -0.0644229 -0.221629
-0.569517 -0.0768965 -0.212112
-0.0982256 -0.192149 0.524536
-0.0925369 -0.196289 -0.541372
-0.108619 0.517012 -0.175155
-0.0811933 -0.533386 -0.164928
0.487367 -0.0227308 -0.222633
-0.469591 -0.134865 -0.126852
-0.0467333 -0.0900816 0.477637
-0.110663 -0.159612 -0.480948
-0.130095 0.53456 -0.190243
-0.0896819 -0.491361 -0.186733
0.520414 -0.0673238 -0.207291
-0.471242 -0.15487 -0.113088
-0.114211 -0.119265 0.516068
-0.106401 -0.196592 -0.526076
-0.06837 0.476379 -0.174511
-0.148359 -0.529361 -0.231152
0.518086 -0.0757631 -0.152477
-0.482782 -0.0725499 -0.131165
-0.18195 -0.103749 0.455621
-0.135985 -0.150518 -0.501721
-0.0913808 0.499019 -0.149062
-0.0831172 -0.443768 -0.203726
0.555203 -0.0928404 -0.102741
-0.530352 -0.0988674 -0.131541
-0.0859909 -0.117389 0.525781
-0.152779 -0.12478 -0.498778
-0.114747 0.49102 -0.17156
-0.11553 -0.466931 -0.143271
0.539136 -0.108529 -0.197372
-0.517708 -0.116983 -0.133241
-0.10112 -0.117809 0.482287
-0.0900517 -0.058679 -0.413967
-0.102712 0.564729 -0.0890104
-0.0249481 -0.467735 -0.101815
0.522594 -0.10032 -0.160368
-0.480941 -0.152033 -0.0737274
-0.0787377 -0.161461 0.438324
-0.114949 -0.183898 -0.496963
-0.0947662 0.477032 -0.110174
-0.164057 -0.486313 -0.120364
0.506014 -0.148406 -0.0497896
-0.482009 -0.0796689 -0.171416
-0.164308 -0.177692 0.505052
-0.124829 -0.137152 -0.536719
-0.0807289 0.541499 -0.0608264
-0.0699162 -0.510092 -0.128759
0.503715 -0.0339406 -0.160865
-0.460697 -0.140764 -0.158517
-0.100455 -0.0979675 0.489847
-0.114818 -0.179513 -0.473892
-0.13823 0.507515 -0.175935
-0.108024 -0.490508 -0.128446
0.472841 -0.142881 -0.164665
-0.510304 -0.0963912 -0.0991301
-0.0400105 -0.150347 0.487827
-0.0634472 -0.0960771 -0.546885
-0.121033 0.566098 -0.0803057
-0.0611319 -0.51015 -0.0568357
0.380888 -0.127495 -0.0822298
-0.580256 -0.180764 -0.0936802
-0.0703806 -0.1022 0.517892
-0.199098 -0.138708 -0.517599
-0.172195 0.55718 -0.042864
-0.125176 -0.488486 -0.0792053
0.411017 -0.0811145 -0.0983396
-0.489171 -0.059176 -0.0793031
-0.204205 -0.0676541 0.48289
-0.0899601 -0.0809009 -0.508111
-0.153178 0.534355 0.00111228
-0.111862 -0.456693 -0.0822055
0.482257 -0.082123 -0.0824102
-0.50317 -0.0848638 -0.0295317
-0.123868 -0.0409872 0.531319
-0.0896494 -0.107761 -0.474379
-0.159348 0.474359 -0.0298413
-0.103453 -0.454159 -0.012625
0.503526 -0.122571 -0.101662
-0.433846 -0.107577 -0.0533136
-0.122476 -0.104208 0.427189
-0.104685 -0.00803499 -0.514388
-0.108142 0.49554 -0.0441796
-0.0946215 -0.457555 -0.0534684
0.484689 -0.0912074 -0.0361711
-0.495505 -0.0776198 -0.0489592
-0.125293 0.0251564 0.502298
-0.049055 -0.0446885 -0.469329
-0.165258 0.470813 -0.0471523
-0.105624 -0.476249 -0.0688028
0.527806 -0.0909045 0.0227337
-0.454704 -0.122383 -0.0642298
-0.00874351 0.0113288 0.422768
-0.101198 0.00445827 -0.467879
-0.085022 0.519836 -0.0855569
-0.0258122 -0.511865 -0.0191162
0.466139 -0.097024 -0.0258326
-0.469786 -0.149278 -0.0637054
-0.0922072 -0.126388 0.52479
-0.0768321 -0.0399079 -0.495295
-0.114039 0.517604 -0.0667698
-0.0597001 -0.408841 -0.0102901
0.530042 -0.199059 0.00761684
-0.58903 -0.17814 0.0143569
-0.0859169 0.047092 0.469661
-0.115922 -0.00631749 -0.397035
-0.0677719 0.449506 -0.0683241
-0.059878 -0.517378 -0.0421477
0.456408 -0.100717 0.0208645
-0.452997 -0.0987236 0.00713797
-0.119856 -0.0204907 0.430955
-0.0811052 -0.031827 -0.459748
-0.07065 0.579935 0.0425236
-0.133409 -0.536954 0.00928573
0.534363 -0.0999886 0.0273744
-0.498635 -0.131077 -0.00214105
-0.231869 0.0186464 0.500982
-0.0518266 0.00532625 -0.499202
-0.119601 0.527524 -0.00632605
-0.111197 -0.446373 0.046559
0.489114 -0.0264573 -0.0694652
-0.483206 -0.133604 0.00982604
-0.0702025 -0.0132453 0.423903
-0.144308 0.0252971 -0.469742
-0.139217 0.573459 0.00942806
-0.14418 -0.529637 -0.0337734
0.578924 -0.194335 0.0592458
-0.527143 -0.0209172 0.00284468
-0.0981056 0.00344538 0.471082
-0.126684 0.0442442 -0.487618
-0.120634 0.504749 0.0310387
-0.13638 -0.541898 -0.0312298
0.558489 -0.108431 -0.0243242
-0.551402 -0.0785374 0.0701617
-0.0956767 0.0351598 0.496223
-0.0679275 -0.010189 -0.445266
-0.0392552 0.489809 -0.0148283
-0.151555 -0.544469 0.0592007
0.462304 -0.150291 0.0664348
-0.480478 -0.126368 -0.0189547
-0.0765145 0.0577549 0.477264
-0.142172 -0.0115746 -0.479004
-0.0884946 0.454262 0.0655145
-0.249577 -0.544833 0.0393541
0.488464 -0.135886 0.0324631
-0.487148 -0.203368 0.055815
-0.182432 0.032218 0.484044
-0.171865 0.0840838 -0.534703
-0.0989859 0.476584 0.0194542
-0.011318 -0.457239 0.0340082
0.510503 -0.144283 0.0288154
-0.490238 -0.153082 0.0512646
-0.0596625 0.0292811 0.500841
-0.160288 0.077252 -0.434193
-0.1958 0.538192 0.00851985
-0.0834465 -0.456806 0.0804041
0.519957 -0.151397 0.0689871
-0.572552 -0.0673242 0.0362016
-0.145605 0.0716038 0.48053
-0.136332 0.146656 -0.486199
-0.0194069 0.493957 0.0876135
-0.171281 -0.510799 0.108888
0.468187 -0.176067 0.0562507
-0.502338 -0.129882 0.145096
-0.0461262 0.0247604 0.48916
-0.0946808 0.10057 -0.521448
-0.0902768 0.52562 0.0998512
