ply
format ascii 1.0
comment sampling resolution: 0.01
comment noise level: 0
comment Created by Open3D
element vertex 1992
property double x
property double y
property double z
end_header
0.5 -0.489899 -0.186869
-0.489899 -0.176768 0.5
-0.489899 -0.176768 -0.5
-0.489899 0.5 -0.176768
-0.489899 -0.5 -0.176768
0.5 -0.489899 -0.176768
-0.5 -0.489899 -0.176768
-0.489899 -0.166667 0.5
-0.489899 -0.166667 -0.5
-0.489899 0.5 -0.166667
0.5 -0.489899 -0.166667
-0.5 -0.489899 -0.166667
-0.489899 -0.156566 0.5
-0.489899 -0.156566 -0.5
-0.489899 0.5 -0.156566
-0.489899 -0.5 -0.156566
0.5 -0.489899 -0.156566
-0.5 -0.489899 -0.156566
-0.489899 -0.146465 0.5
-0.489899 -0.146465 -0.5
-0.489899 0.5 -0.146465
-0.489899 -0.5 -0.146465
0.5 -0.489899 -0.146465
-0.489899 -0.136364 0.5
-0.489899 -0.136364 -0.5
-0.489899 0.5 -0.136364
-0.489899 -0.5 -0.136364
0.5 -0.489899 -0.136364
-0.5 -0.489899 -0.136364
-0.489899 -0.126263 0.5
-0.489899 -0.126263 -0.5
-0.489899 0.5 -0.126263
-0.489899 -0.5 -0.126263
0.5 -0.489899 -0.126263
-0.5 -0.489899 -0.126263
-0.489899 -0.116162 0.5
-0.489899 -0.116162 -0.5
-0.489899 -0.5 -0.116162
0.5 -0.489899 -0.116162
-0.5 -0.489899 -0.116162
-0.489899 -0.106061 0.5
-0.489899 0.5 -0.106061
-0.489899 -0.5 -0.106061
0.5 -0.489899 -0.106061
-0.5 -0.489899 -0.106061
-0.489899 -0.0959596 0.5
-0.489899 -0.0959596 -0.5
-0.489899 0.5 -0.0959596
-0.489899 -0.5 -0.0959596
0.5 -0.489899 -0.0959596
-0.5 -0.489899 -0.0959596
-0.489899 -0.0858586 0.5
-0.489899 -0.0858586 -0.5
-0.489899 0.5 -0.0858586
-0.489899 -0.5 -0.0858586
0.5 -0.489899 -0.0858586
-0.489899 -0.0757576 0.5
-0.489899 -0.0757576 -0.5
-0.489899 -0.5 -0.0757576
0.5 -0.489899 -0.0757576
-0.5 -0.489899 -0.0757576
-0.489899 0.5 -0.0656566
-0.489899 -0.5 -0.0656566
0.5 -0.489899 -0.0656566
-0.5 -0.489899 -0.0656566
-0.489899 -0.0555556 -0.5
-0.489899 0.5 -0.0555556
-0.489899 -0.5 -0.0555556
0.5 -0.489899 -0.0555556
-0.5 -0.489899 -0.0555556
-0.489899 -0.0454545 0.5
-0.489899 -0.0454545 -0.5
-0.489899 0.5 -0.0454545
-0.489899 -0.5 -0.0454545
0.5 -0.489899 -0.0454545
-0.5 -0.489899 -0.0454545
-0.489899 -0.0353535 0.5
-0.489899 -0.0353535 -0.5
-0.489899 0.5 -0.0353535
-0.489899 -0.5 -0.0353535
0.5 -0.489899 -0.0353535
-0.5 -0.489899 -0.0353535
-0.489899 -0.0252525 0.5
-0.489899 -0.0252525 -0.5
-0.489899 -0.5 -0.0252525
0.5 -0.489899 -0.0252525
-0.5 -0.489899 -0.0252525
-0.489899 -0.0151515 -0.5
-0.489899 0.5 -0.0151515
-0.489899 -0.5 -0.0151515
0.5 -0.489899 -0.0151515
-0.5 -0.489899 -0.0151515
-0.489899 -0.00505051 -0.5
-0.489899 0.5 -0.00505051
-0.489899 -0.5 -0.00505051
0.5 -0.489899 -0.00505051
-0.5 -0.489899 -0.00505051
-0.489899 0.00505051 0.5
-0.489899 0.00505051 -0.5
-0.489899 0.5 0.00505051
-0.489899 -0.5 0.00505051
0.5 -0.489899 0.00505051
-0.5 -0.489899 0.00505051
-0.489899 0.0151515 0.5
-0.489899 -0.5 0.0151515
-0.489899 0.0252525 0.5
-0.489899 0.0252525 -0.5
-0.489899 -0.5 0.0252525
0.5 -0.489899 0.0252525
-0.5 -0.489899 0.0252525
-0.489899 0.0353535 0.5
-0.489899 0.0353535 -0.5
-0.489899 0.5 0.0353535
-0.489899 -0.5 0.0353535
0.5 -0.489899 0.0353535
-0.5 -0.489899 0.0353535
-0.489899 0.0454545 0.5
-0.489899 0.0454545 -0.5
-0.489899 0.5 0.0454545
-0.489899 -0.5 0.0454545
0.5 -0.489899 0.0454545
-0.5 -0.489899 0.0454545
-0.489899 0.0555556 0.5
-0.489899 0.5 0.0555556
-0.489899 -0.5 0.0555556
0.5 -0.489899 0.0555556
-0.5 -0.489899 0.0555556
-0.489899 0.0656566 0.5
-0.489899 0.0656566 -0.5
-0.489899 0.5 0.0656566
-0.489899 -0.5 0.0656566
0.5 -0.489899 0.0656566
-0.5 -0.489899 0.0656566
-0.489899 0.0757576 -0.5
-0.489899 0.5 0.0757576
-0.5 -0.489899 0.0757576
-0.489899 0.0858586 -0.5
-0.489899 0.5 0.0858586
-0.489899 -0.5 0.0858586
-0.489899 0.0959596 0.5
-0.489899 0.5 0.0959596
0.5 -0.489899 0.0959596
-0.5 -0.489899 0.0959596
-0.489899 0.106061 0.5
-0.489899 0.106061 -0.5
-0.489899 0.5 0.106061
-0.489899 -0.5 0.106061
0.5 -0.489899 0.106061
-0.5 -0.489899 0.106061
-0.489899 0.116162 0.5
-0.489899 0.116162 -0.5
-0.489899 0.5 0.116162
-0.489899 -0.5 0.116162
0.5 -0.489899 0.116162
-0.5 -0.489899 0.116162
-0.489899 0.126263 0.5
-0.489899 0.5 0.126263
0.5 -0.489899 0.126263
-0.5 -0.489899 0.126263
-0.489899 0.136364 0.5
-0.489899 0.136364 -0.5
-0.489899 0.5 0.136364
-0.489899 -0.5 0.136364
0.5 -0.489899 0.136364
-0.5 -0.489899 0.136364
-0.489899 0.146465 0.5
-0.489899 0.146465 -0.5
-0.489899 0.5 0.146465
0.5 -0.489899 0.146465
-0.5 -0.489899 0.146465
-0.489899 0.156566 0.5
-0.489899 0.156566 -0.5
-0.489899 0.5 0.156566
0.5 -0.489899 0.156566
-0.5 -0.489899 0.156566
-0.489899 0.166667 0.5
-0.489899 0.166667 -0.5
-0.489899 0.5 0.166667
-0.489899 -0.5 0.166667
0.5 -0.489899 0.166667
-0.5 -0.489899 0.166667
-0.489899 0.176768 0.5
-0.489899 0.176768 -0.5
-0.489899 0.5 0.176768
-0.489899 -0.5 0.176768
0.5 -0.489899 0.176768
-0.5 -0.489899 0.176768
-0.489899 0.186869 0.5
-0.489899 0.186869 -0.5
-0.489899 0.5 0.186869
-0.489899 -0.5 0.186869
-0.5 -0.489899 0.186869
-0.489899 0.19697 0.5
-0.489899 0.5 0.19697
-0.489899 -0.5 0.19697
0.5 -0.489899 0.19697
-0.5 -0.489899 0.19697
-0.489899 0.207071 0.5
-0.489899 0.207071 -0.5
-0.489899 0.5 0.207071
-0.489899 -0.5 0.207071
-0.5 -0.489899 0.207071
-0.489899 0.217172 0.5
-0.489899 0.217172 -0.5
-0.489899 0.5 0.217172
-0.489899 -0.5 0.217172
-0.5 -0.489899 0.217172
-0.489899 0.227273 0.5
-0.489899 0.227273 -0.5
-0.489899 0.5 0.227273
-0.489899 -0.5 0.227273
0.5 -0.489899 0.227273
-0.5 -0.489899 0.227273
-0.489899 0.237374 0.5
-0.489899 0.237374 -0.5
-0.489899 0.5 0.237374
0.5 -0.489899 0.237374
-0.5 -0.489899 0.237374
-0.489899 0.247475 0.5
-0.489899 0.247475 -0.5
-0.489899 0.5 0.247475
-0.489899 -0.5 0.247475
0.5 -0.489899 0.247475
-0.5 -0.489899 0.247475
-0.489899 0.257576 0.5
-0.489899 0.257576 -0.5
-0.489899 0.5 0.257576
-0.489899 -0.5 0.257576
0.5 -0.489899 0.257576
-0.5 -0.489899 0.257576
-0.489899 0.267677 0.5
-0.489899 0.267677 -0.5
-0.489899 0.5 0.267677
-0.489899 -0.5 0.267677
0.5 -0.489899 0.267677
-0.5 -0.489899 0.267677
-0.489899 0.277778 0.5
-0.489899 0.277778 -0.5
-0.489899 0.5 0.277778
-0.489899 -0.5 0.277778
-0.5 -0.489899 0.277778
-0.489899 0.287879 0.5
-0.489899 0.287879 -0.5
-0.489899 0.5 0.287879
-0.489899 -0.5 0.287879
0.5 -0.489899 0.287879
-0.5 -0.489899 0.287879
-0.489899 0.29798 0.5
-0.489899 0.29798 -0.5
-0.489899 0.5 0.29798
-0.489899 -0.5 0.29798
0.5 -0.489899 0.29798
-0.5 -0.489899 0.29798
-0.489899 0.308081 0.5
-0.489899 0.308081 -0.5
-0.489899 0.5 0.308081
-0.489899 -0.5 0.308081
0.5 -0.489899 0.308081
-0.5 -0.489899 0.308081
-0.489899 0.318182 0.5
-0.489899 0.318182 -0.5
-0.489899 0.5 0.318182
-0.489899 -0.5 0.318182
0.5 -0.489899 0.318182
-0.5 -0.489899 0.318182
-0.489899 0.328283 0.5
-0.489899 0.328283 -0.5
-0.489899 -0.5 0.328283
0.5 -0.489899 0.328283
-0.5 -0.489899 0.328283
-0.489899 0.338384 0.5
-0.489899 0.338384 -0.5
-0.489899 0.5 0.338384
-0.489899 -0.5 0.338384
0.5 -0.489899 0.338384
-0.5 -0.489899 0.338384
-0.489899 0.348485 0.5
-0.489899 0.348485 -0.5
-0.489899 0.5 0.348485
-0.489899 -0.5 0.348485
0.5 -0.489899 0.348485
-0.5 -0.489899 0.348485
-0.489899 0.358586 0.5
-0.489899 0.358586 -0.5
-0.489899 0.5 0.358586
-0.489899 -0.5 0.358586
0.5 -0.489899 0.358586
-0.5 -0.489899 0.358586
-0.489899 0.368687 0.5
-0.489899 0.368687 -0.5
-0.489899 0.5 0.368687
-0.489899 -0.5 0.368687
0.5 -0.489899 0.368687
-0.5 -0.489899 0.368687
-0.489899 0.378788 0.5
-0.489899 0.378788 -0.5
-0.489899 0.5 0.378788
-0.489899 -0.5 0.378788
0.5 -0.489899 0.378788
-0.5 -0.489899 0.378788
-0.489899 0.388889 0.5
-0.489899 0.388889 -0.5
-0.489899 0.5 0.388889
-0.489899 -0.5 0.388889
0.5 -0.489899 0.388889
-0.5 -0.489899 0.388889
-0.489899 0.39899 0.5
-0.489899 0.39899 -0.5
-0.489899 0.5 0.39899
-0.489899 -0.5 0.39899
0.5 -0.489899 0.39899
-0.5 -0.489899 0.39899
-0.489899 0.409091 0.5
-0.489899 0.409091 -0.5
-0.489899 0.5 0.409091
-0.489899 -0.5 0.409091
0.5 -0.489899 0.409091
-0.5 -0.489899 0.409091
-0.489899 0.419192 0.5
-0.489899 0.419192 -0.5
-0.489899 0.5 0.419192
-0.489899 -0.5 0.419192
0.5 -0.489899 0.419192
-0.5 -0.489899 0.419192
-0.489899 0.429293 0.5
-0.489899 0.429293 -0.5
-0.489899 0.5 0.429293
-0.489899 -0.5 0.429293
0.5 -0.489899 0.429293
-0.5 -0.489899 0.429293
-0.489899 0.439394 0.5
-0.489899 0.439394 -0.5
-0.489899 0.5 0.439394
-0.489899 -0.5 0.439394
0.5 -0.489899 0.439394
-0.5 -0.489899 0.439394
-0.489899 0.449495 0.5
-0.489899 0.449495 -0.5
-0.489899 0.5 0.449495
-0.489899 -0.5 0.449495
0.5 -0.489899 0.449495
-0.5 -0.489899 0.449495
-0.489899 0.459596 0.5
-0.489899 0.459596 -0.5
-0.489899 0.5 0.459596
-0.489899 -0.5 0.459596
0.5 -0.489899 0.459596
-0.5 -0.489899 0.459596
-0.489899 0.469697 0.5
-0.489899 0.469697 -0.5
-0.489899 0.5 0.469697
-0.489899 -0.5 0.469697
0.5 -0.489899 0.469697
-0.5 -0.489899 0.469697
-0.489899 0.479798 0.5
-0.489899 0.479798 -0.5
-0.489899 0.5 0.479798
-0.489899 -0.5 0.479798
0.5 -0.489899 0.479798
-0.5 -0.489899 0.479798
-0.489899 0.489899 0.5
-0.489899 0.489899 -0.5
-0.489899 0.5 0.489899
-0.489899 -0.5 0.489899
0.5 -0.489899 0.489899
-0.5 -0.489899 0.489899
-0.489899 0.5 0.5
-0.489899 0.5 -0.5
-0.489899 0.5 0.5
-0.489899 -0.5 0.5
0.5 -0.489899 0.5
-0.5 -0.489899 0.5
-0.479798 -0.5 0.5
-0.479798 -0.5 -0.5
-0.479798 0.5 -0.5
-0.479798 -0.5 -0.5
0.5 -0.479798 -0.5
-0.5 -0.479798 -0.5
-0.479798 -0.489899 0.5
-0.479798 -0.489899 -0.5
-0.479798 0.5 -0.489899
-0.479798 -0.5 -0.489899
0.5 -0.479798 -0.489899
-0.5 -0.479798 -0.489899
-0.479798 -0.479798 0.5
-0.479798 -0.479798 -0.5
-0.479798 0.5 -0.479798
-0.479798 -0.5 -0.479798
0.5 -0.479798 -0.479798
-0.5 -0.479798 -0.479798
-0.479798 -0.469697 0.5
-0.479798 -0.469697 -0.5
-0.479798 0.5 -0.469697
-0.479798 -0.5 -0.469697
0.5 -0.479798 -0.469697
-0.5 -0.479798 -0.469697
-0.479798 -0.459596 0.5
-0.479798 -0.459596 -0.5
-0.479798 0.5 -0.459596
-0.479798 -0.5 -0.459596
0.5 -0.479798 -0.459596
-0.5 -0.479798 -0.459596
-0.479798 -0.449495 0.5
-0.479798 -0.449495 -0.5
-0.479798 0.5 -0.449495
-0.479798 -0.5 -0.449495
0.5 -0.479798 -0.449495
-0.5 -0.479798 -0.449495
-0.479798 -0.439394 0.5
-0.479798 -0.439394 -0.5
-0.479798 0.5 -0.439394
-0.479798 -0.5 -0.439394
0.5 -0.479798 -0.439394
-0.5 -0.479798 -0.439394
-0.479798 -0.429293 0.5
-0.479798 -0.429293 -0.5
-0.479798 0.5 -0.429293
-0.479798 -0.5 -0.429293
0.5 -0.479798 -0.429293
-0.5 -0.479798 -0.429293
-0.479798 -0.419192 0.5
-0.479798 -0.419192 -0.5
-0.479798 0.5 -0.419192
-0.479798 -0.5 -0.419192
0.5 -0.479798 -0.419192
-0.5 -0.479798 -0.419192
-0.479798 -0.409091 0.5
-0.479798 -0.409091 -0.5
-0.479798 0.5 -0.409091
-0.479798 -0.5 -0.409091
0.5 -0.479798 -0.409091
-0.5 -0.479798 -0.409091
-0.479798 -0.39899 0.5
-0.479798 -0.39899 -0.5
-0.479798 0.5 -0.39899
0.5 -0.479798 -0.39899
-0.5 -0.479798 -0.39899
-0.479798 -0.388889 0.5
-0.479798 -0.388889 -0.5
-0.479798 0.5 -0.388889
-0.479798 -0.5 -0.388889
0.5 -0.479798 -0.388889
-0.5 -0.479798 -0.388889
-0.479798 -0.378788 0.5
-0.479798 -0.378788 -0.5
-0.479798 0.5 -0.378788
-0.479798 -0.5 -0.378788
0.5 -0.479798 -0.378788
-0.5 -0.479798 -0.378788
-0.479798 -0.368687 0.5
-0.479798 -0.368687 -0.5
-0.479798 0.5 -0.368687
0.5 -0.479798 -0.368687
-0.5 -0.479798 -0.368687
-0.479798 -0.358586 0.5
-0.479798 -0.358586 -0.5
-0.479798 0.5 -0.358586
-0.479798 -0.5 -0.358586
0.5 -0.479798 -0.358586
-0.5 -0.479798 -0.358586
-0.479798 -0.348485 0.5
-0.479798 -0.348485 -0.5
-0.479798 0.5 -0.348485
-0.479798 -0.5 -0.348485
-0.5 -0.479798 -0.348485
-0.479798 -0.338384 0.5
-0.479798 -0.338384 -0.5
-0.479798 0.5 -0.338384
-0.479798 -0.5 -0.338384
0.5 -0.479798 -0.338384
-0.5 -0.479798 -0.338384
-0.479798 -0.328283 0.5
-0.479798 -0.328283 -0.5
-0.479798 0.5 -0.328283
-0.479798 -0.5 -0.328283
0.5 -0.479798 -0.328283
-0.5 -0.479798 -0.328283
-0.479798 -0.318182 0.5
-0.479798 -0.318182 -0.5
-0.479798 0.5 -0.318182
-0.479798 -0.5 -0.318182
0.5 -0.479798 -0.318182
-0.5 -0.479798 -0.318182
-0.479798 -0.308081 -0.5
-0.479798 0.5 -0.308081
-0.479798 -0.5 -0.308081
0.5 -0.479798 -0.308081
-0.5 -0.479798 -0.308081
-0.479798 -0.29798 0.5
-0.479798 -0.29798 -0.5
-0.479798 0.5 -0.29798
-0.479798 -0.5 -0.29798
0.5 -0.479798 -0.29798
-0.5 -0.479798 -0.29798
-0.479798 -0.287879 -0.5
-0.479798 -0.5 -0.287879
0.5 -0.479798 -0.287879
-0.5 -0.479798 -0.287879
-0.479798 -0.277778 0.5
-0.479798 -0.277778 -0.5
-0.479798 0.5 -0.277778
-0.479798 -0.5 -0.277778
0.5 -0.479798 -0.277778
-0.479798 -0.267677 0.5
-0.479798 -0.267677 -0.5
-0.479798 0.5 -0.267677
-0.479798 -0.5 -0.267677
0.5 -0.479798 -0.267677
-0.5 -0.479798 -0.267677
-0.479798 -0.257576 0.5
-0.479798 -0.257576 -0.5
-0.479798 0.5 -0.257576
-0.479798 -0.5 -0.257576
0.5 -0.479798 -0.257576
-0.5 -0.479798 -0.257576
-0.479798 -0.247475 0.5
-0.479798 -0.247475 -0.5
-0.479798 0.5 -0.247475
-0.479798 -0.5 -0.247475
0.5 -0.479798 -0.247475
-0.5 -0.479798 -0.247475
-0.479798 -0.237374 0.5
-0.479798 -0.237374 -0.5
-0.479798 0.5 -0.237374
-0.479798 -0.5 -0.237374
0.5 -0.479798 -0.237374
-0.5 -0.479798 -0.237374
-0.479798 -0.227273 0.5
-0.479798 -0.227273 -0.5
-0.479798 0.5 -0.227273
0.5 -0.479798 -0.227273
-0.5 -0.479798 -0.227273
-0.479798 -0.217172 0.5
-0.479798 0.5 -0.217172
-0.479798 -0.5 -0.217172
0.5 -0.479798 -0.217172
-0.5 -0.479798 -0.217172
-0.479798 -0.207071 0.5
-0.479798 -0.207071 -0.5
-0.479798 0.5 -0.207071
-0.479798 -0.5 -0.207071
0.5 -0.479798 -0.207071
-0.479798 -0.19697 0.5
-0.479798 -0.19697 -0.5
-0.479798 0.5 -0.19697
-0.479798 -0.5 -0.19697
0.5 -0.479798 -0.19697
-0.479798 -0.186869 0.5
-0.479798 -0.186869 -0.5
-0.479798 0.5 -0.186869
-0.479798 -0.5 -0.186869
0.5 -0.479798 -0.186869
-0.479798 -0.176768 0.5
-0.479798 -0.176768 -0.5
-0.479798 0.5 -0.176768
-0.479798 -0.5 -0.176768
0.5 -0.479798 -0.176768
-0.5 -0.479798 -0.176768
-0.479798 -0.166667 0.5
-0.479798 -0.166667 -0.5
-0.479798 0.5 -0.166667
-0.479798 -0.5 -0.166667
0.5 -0.479798 -0.166667
-0.5 -0.479798 -0.166667
-0.479798 -0.156566 0.5
-0.479798 -0.156566 -0.5
-0.479798 0.5 -0.156566
-0.479798 -0.5 -0.156566
0.5 -0.479798 -0.156566
-0.5 -0.479798 -0.156566
-0.479798 -0.146465 0.5
-0.479798 -0.146465 -0.5
-0.479798 0.5 -0.146465
-0.479798 -0.5 -0.146465
0.5 -0.479798 -0.146465
-0.5 -0.479798 -0.146465
-0.479798 -0.136364 0.5
-0.479798 -0.136364 -0.5
-0.479798 -0.5 -0.136364
-0.5 -0.479798 -0.136364
-0.479798 -0.126263 0.5
-0.479798 -0.126263 -0.5
-0.479798 0.5 -0.126263
-0.479798 -0.5 -0.126263
0.5 -0.479798 -0.126263
-0.5 -0.479798 -0.126263
-0.479798 -0.116162 0.5
-0.479798 -0.116162 -0.5
-0.479798 -0.5 -0.116162
-0.479798 -0.106061 0.5
-0.479798 -0.106061 -0.5
-0.479798 -0.5 -0.106061
0.5 -0.479798 -0.106061
-0.5 -0.479798 -0.106061
-0.479798 -0.0959596 0.5
-0.479798 -0.5 -0.0959596
-0.5 -0.479798 -0.0959596
-0.479798 -0.0858586 0.5
-0.479798 -0.0858586 -0.5
-0.479798 0.5 -0.0858586
-0.479798 -0.5 -0.0858586
0.5 -0.479798 -0.0858586
-0.479798 -0.0757576 0.5
-0.479798 -0.0757576 -0.5
-0.479798 0.5 -0.0757576
-0.479798 -0.5 -0.0757576
0.5 -0.479798 -0.0757576
-0.5 -0.479798 -0.0757576
-0.479798 -0.0656566 0.5
-0.479798 -0.0656566 -0.5
-0.479798 0.5 -0.0656566
-0.479798 -0.5 -0.0656566
0.5 -0.479798 -0.0656566
-0.5 -0.479798 -0.0656566
-0.479798 -0.0555556 0.5
-0.479798 -0.0555556 -0.5
-0.479798 0.5 -0.0555556
-0.479798 -0.5 -0.0555556
0.5 -0.479798 -0.0555556
-0.5 -0.479798 -0.0555556
-0.479798 -0.0454545 0.5
-0.479798 0.5 -0.0454545
-0.479798 -0.5 -0.0454545
0.5 -0.479798 -0.0454545
-0.479798 -0.0353535 0.5
-0.479798 -0.0353535 -0.5
-0.479798 0.5 -0.0353535
-0.479798 -0.5 -0.0353535
0.5 -0.479798 -0.0353535
-0.479798 -0.5 -0.0252525
0.5 -0.479798 -0.0252525
-0.5 -0.479798 -0.0252525
-0.479798 -0.0151515 0.5
-0.479798 -0.0151515 -0.5
-0.479798 -0.5 -0.0151515
-0.5 -0.479798 -0.0151515
-0.479798 -0.00505051 0.5
-0.479798 0.5 -0.00505051
-0.479798 -0.5 -0.00505051
0.5 -0.479798 -0.00505051
-0.5 -0.479798 -0.00505051
-0.479798 0.00505051 -0.5
-0.479798 0.5 0.00505051
-0.479798 -0.5 0.00505051
0.5 -0.479798 0.00505051
-0.5 -0.479798 0.00505051
-0.479798 0.0151515 -0.5
-0.479798 0.5 0.0151515
-0.479798 -0.5 0.0151515
0.5 -0.479798 0.0151515
-0.5 -0.479798 0.0151515
-0.479798 0.0252525 0.5
-0.479798 0.5 0.0252525
-0.479798 -0.5 0.0252525
0.5 -0.479798 0.0252525
-0.5 -0.479798 0.0252525
-0.479798 0.0353535 0.5
-0.479798 0.5 0.0353535
0.5 -0.479798 0.0353535
-0.479798 0.0454545 0.5
-0.479798 0.0454545 -0.5
-0.479798 0.5 0.0454545
-0.479798 -0.5 0.0454545
0.5 -0.479798 0.0454545
-0.5 -0.479798 0.0454545
-0.479798 0.0555556 0.5
-0.479798 0.0555556 -0.5
-0.479798 0.5 0.0555556
-0.479798 -0.5 0.0555556
0.5 -0.479798 0.0555556
-0.5 -0.479798 0.0555556
-0.479798 0.0656566 -0.5
-0.479798 0.5 0.0656566
-0.479798 -0.5 0.0656566
0.5 -0.479798 0.0656566
-0.5 -0.479798 0.0656566
-0.479798 0.0757576 0.5
-0.479798 0.0757576 -0.5
-0.479798 0.5 0.0757576
-0.479798 -0.5 0.0757576
0.5 -0.479798 0.0757576
-0.5 -0.479798 0.0757576
-0.479798 0.0858586 0.5
-0.479798 0.5 0.0858586
-0.479798 -0.5 0.0858586
-0.5 -0.479798 0.0858586
-0.479798 0.0959596 0.5
-0.479798 0.0959596 -0.5
-0.479798 0.5 0.0959596
-0.479798 -0.5 0.0959596
0.5 -0.479798 0.0959596
-0.5 -0.479798 0.0959596
-0.479798 0.106061 0.5
-0.479798 0.106061 -0.5
-0.479798 0.5 0.106061
0.5 -0.479798 0.106061
-0.5 -0.479798 0.106061
-0.479798 0.116162 0.5
-0.479798 0.116162 -0.5
-0.479798 0.5 0.116162
-0.479798 -0.5 0.116162
0.5 -0.479798 0.116162
-0.5 -0.479798 0.116162
-0.479798 0.5 0.126263
-0.479798 -0.5 0.126263
0.5 -0.479798 0.126263
-0.5 -0.479798 0.126263
-0.479798 0.136364 0.5
-0.479798 0.136364 -0.5
-0.479798 0.5 0.136364
-0.479798 -0.5 0.136364
0.5 -0.479798 0.136364
-0.5 -0.479798 0.136364
-0.479798 0.146465 0.5
-0.479798 0.146465 -0.5
-0.479798 0.5 0.146465
-0.479798 -0.5 0.146465
-0.5 -0.479798 0.146465
-0.479798 0.156566 0.5
-0.479798 0.156566 -0.5
-0.479798 0.5 0.156566
-0.479798 -0.5 0.156566
0.5 -0.479798 0.156566
-0.5 -0.479798 0.156566
-0.479798 0.166667 0.5
-0.479798 0.166667 -0.5
-0.479798 0.5 0.166667
-0.479798 -0.5 0.166667
0.5 -0.479798 0.166667
-0.5 -0.479798 0.166667
-0.479798 0.176768 0.5
-0.479798 0.176768 -0.5
-0.479798 0.5 0.176768
-0.479798 -0.5 0.176768
0.5 -0.479798 0.176768
-0.5 -0.479798 0.176768
-0.479798 0.186869 -0.5
-0.479798 0.5 0.186869
-0.479798 -0.5 0.186869
0.5 -0.479798 0.186869
-0.5 -0.479798 0.186869
-0.479798 0.19697 0.5
-0.479798 0.19697 -0.5
-0.479798 0.5 0.19697
-0.479798 -0.5 0.19697
0.5 -0.479798 0.19697
-0.5 -0.479798 0.19697
-0.479798 0.207071 0.5
-0.479798 -0.5 0.207071
0.5 -0.479798 0.207071
-0.5 -0.479798 0.207071
-0.479798 0.217172 0.5
-0.479798 0.217172 -0.5
-0.479798 -0.5 0.217172
-0.479798 0.227273 0.5
-0.479798 0.227273 -0.5
-0.479798 0.5 0.227273
-0.479798 -0.5 0.227273
0.5 -0.479798 0.227273
-0.5 -0.479798 0.227273
-0.479798 0.237374 0.5
-0.479798 0.237374 -0.5
-0.479798 0.5 0.237374
-0.479798 -0.5 0.237374
0.5 -0.479798 0.237374
-0.479798 0.247475 0.5
-0.479798 0.247475 -0.5
-0.479798 0.5 0.247475
-0.479798 -0.5 0.247475
0.5 -0.479798 0.247475
-0.5 -0.479798 0.247475
-0.479798 0.257576 0.5
-0.479798 0.257576 -0.5
-0.479798 0.5 0.257576
-0.479798 -0.5 0.257576
0.5 -0.479798 0.257576
-0.5 -0.479798 0.257576
-0.479798 0.267677 0.5
-0.479798 0.267677 -0.5
-0.479798 0.5 0.267677
-0.479798 -0.5 0.267677
0.5 -0.479798 0.267677
-0.5 -0.479798 0.267677
-0.479798 0.277778 0.5
-0.479798 0.5 0.277778
0.5 -0.479798 0.277778
-0.479798 0.287879 0.5
-0.479798 0.287879 -0.5
-0.479798 0.5 0.287879
-0.479798 -0.5 0.287879
0.5 -0.479798 0.287879
-0.479798 0.29798 0.5
-0.479798 0.29798 -0.5
-0.479798 -0.5 0.29798
0.5 -0.479798 0.29798
-0.479798 0.308081 0.5
-0.479798 0.308081 -0.5
-0.479798 -0.5 0.308081
0.5 -0.479798 0.308081
-0.479798 0.318182 0.5
-0.479798 0.318182 -0.5
-0.479798 0.5 0.318182
-0.479798 -0.5 0.318182
0.5 -0.479798 0.318182
-0.5 -0.479798 0.318182
-0.479798 0.328283 0.5
-0.479798 0.328283 -0.5
-0.479798 0.5 0.328283
-0.479798 -0.5 0.328283
0.5 -0.479798 0.328283
-0.5 -0.479798 0.328283
-0.479798 0.338384 0.5
-0.479798 0.338384 -0.5
-0.479798 0.5 0.338384
-0.479798 -0.5 0.338384
0.5 -0.479798 0.338384
-0.5 -0.479798 0.338384
-0.479798 0.348485 0.5
-0.479798 0.348485 -0.5
-0.479798 0.5 0.348485
-0.479798 -0.5 0.348485
0.5 -0.479798 0.348485
-0.5 -0.479798 0.348485
-0.479798 0.358586 0.5
-0.479798 0.358586 -0.5
-0.479798 0.5 0.358586
-0.479798 -0.5 0.358586
0.5 -0.479798 0.358586
-0.5 -0.479798 0.358586
-0.479798 0.368687 0.5
-0.479798 0.368687 -0.5
-0.479798 0.5 0.368687
0.5 -0.479798 0.368687
-0.5 -0.479798 0.368687
-0.479798 0.378788 0.5
-0.479798 0.378788 -0.5
-0.479798 0.5 0.378788
-0.479798 -0.5 0.378788
0.5 -0.479798 0.378788
-0.5 -0.479798 0.378788
-0.479798 0.388889 0.5
-0.479798 0.388889 -0.5
-0.479798 0.5 0.388889
-0.479798 -0.5 0.388889
0.5 -0.479798 0.388889
-0.5 -0.479798 0.388889
-0.479798 0.39899 0.5
-0.479798 0.39899 -0.5
-0.479798 0.5 0.39899
-0.479798 -0.5 0.39899
0.5 -0.479798 0.39899
-0.5 -0.479798 0.39899
-0.479798 0.409091 0.5
-0.479798 0.409091 -0.5
-0.479798 0.5 0.409091
-0.479798 -0.5 0.409091
0.5 -0.479798 0.409091
-0.5 -0.479798 0.409091
-0.479798 0.419192 0.5
-0.479798 0.419192 -0.5
-0.479798 0.5 0.419192
-0.479798 -0.5 0.419192
-0.5 -0.479798 0.419192
-0.479798 0.429293 0.5
-0.479798 0.429293 -0.5
-0.479798 0.5 0.429293
-0.479798 -0.5 0.429293
0.5 -0.479798 0.429293
-0.5 -0.479798 0.429293
-0.479798 0.439394 0.5
-0.479798 0.439394 -0.5
-0.479798 0.5 0.439394
-0.479798 -0.5 0.439394
0.5 -0.479798 0.439394
-0.5 -0.479798 0.439394
-0.479798 0.449495 0.5
-0.479798 0.449495 -0.5
-0.479798 -0.5 0.449495
0.5 -0.479798 0.449495
-0.5 -0.479798 0.449495
-0.479798 0.459596 0.5
-0.479798 0.459596 -0.5
-0.479798 0.5 0.459596
-0.479798 -0.5 0.459596
0.5 -0.479798 0.459596
-0.5 -0.479798 0.459596
-0.479798 0.469697 0.5
-0.479798 0.469697 -0.5
-0.479798 0.5 0.469697
-0.479798 -0.5 0.469697
0.5 -0.479798 0.469697
-0.5 -0.479798 0.469697
-0.479798 0.479798 0.5
-0.479798 0.479798 -0.5
-0.479798 0.5 0.479798
-0.479798 -0.5 0.479798
0.5 -0.479798 0.479798
-0.5 -0.479798 0.479798
-0.479798 0.489899 0.5
-0.479798 0.489899 -0.5
-0.479798 0.5 0.489899
-0.479798 -0.5 0.489899
0.5 -0.479798 0.489899
-0.5 -0.479798 0.489899
-0.479798 0.5 0.5
-0.479798 0.5 -0.5
-0.479798 0.5 0.5
-0.479798 -0.5 0.5
0.5 -0.479798 0.5
-0.5 -0.479798 0.5
-0.469697 -0.5 0.5
-0.469697 -0.5 -0.5
-0.469697 0.5 -0.5
-0.469697 -0.5 -0.5
0.5 -0.469697 -0.5
-0.5 -0.469697 -0.5
-0.469697 -0.489899 0.5
-0.469697 -0.489899 -0.5
-0.469697 0.5 -0.489899
-0.469697 -0.5 -0.489899
0.5 -0.469697 -0.489899
-0.5 -0.469697 -0.489899
-0.469697 -0.479798 0.5
-0.469697 -0.479798 -0.5
-0.469697 0.5 -0.479798
-0.469697 -0.5 -0.479798
0.5 -0.469697 -0.479798
-0.5 -0.469697 -0.479798
-0.469697 -0.469697 0.5
-0.469697 -0.469697 -0.5
-0.469697 0.5 -0.469697
-0.469697 -0.5 -0.469697
0.5 -0.469697 -0.469697
-0.5 -0.469697 -0.469697
-0.469697 -0.459596 0.5
-0.469697 0.5 -0.459596
-0.469697 -0.5 -0.459596
0.5 -0.469697 -0.459596
-0.5 -0.469697 -0.459596
-0.469697 -0.449495 0.5
-0.469697 -0.449495 -0.5
-0.469697 0.5 -0.449495
-0.469697 -0.5 -0.449495
0.5 -0.469697 -0.449495
-0.5 -0.469697 -0.449495
-0.469697 -0.439394 -0.5
-0.469697 0.5 -0.439394
-0.469697 -0.5 -0.439394
0.5 -0.469697 -0.439394
-0.5 -0.469697 -0.439394
-0.469697 -0.429293 0.5
-0.469697 -0.429293 -0.5
-0.469697 0.5 -0.429293
-0.469697 -0.5 -0.429293
0.5 -0.469697 -0.429293
-0.5 -0.469697 -0.429293
-0.469697 -0.419192 0.5
-0.469697 -0.419192 -0.5
-0.469697 0.5 -0.419192
-0.469697 -0.5 -0.419192
0.5 -0.469697 -0.419192
-0.5 -0.469697 -0.419192
-0.469697 -0.409091 0.5
-0.469697 -0.409091 -0.5
-0.469697 0.5 -0.409091
-0.469697 -0.5 -0.409091
0.5 -0.469697 -0.409091
-0.5 -0.469697 -0.409091
-0.469697 -0.39899 0.5
-0.469697 -0.39899 -0.5
-0.469697 0.5 -0.39899
-0.469697 -0.5 -0.39899
0.5 -0.469697 -0.39899
-0.5 -0.469697 -0.39899
-0.469697 -0.388889 0.5
-0.469697 -0.388889 -0.5
-0.469697 0.5 -0.388889
-0.469697 -0.5 -0.388889
0.5 -0.469697 -0.388889
-0.5 -0.469697 -0.388889
-0.469697 -0.378788 0.5
-0.469697 -0.378788 -0.5
-0.469697 -0.5 -0.378788
0.5 -0.469697 -0.378788
-0.5 -0.469697 -0.378788
-0.469697 -0.368687 0.5
-0.469697 -0.368687 -0.5
-0.469697 0.5 -0.368687
-0.469697 -0.5 -0.368687
-0.5 -0.469697 -0.368687
-0.469697 -0.358586 0.5
-0.469697 -0.358586 -0.5
-0.469697 0.5 -0.358586
-0.469697 -0.5 -0.358586
0.5 -0.469697 -0.358586
-0.5 -0.469697 -0.358586
-0.469697 -0.348485 0.5
-0.469697 -0.348485 -0.5
-0.469697 0.5 -0.348485
0.5 -0.469697 -0.348485
-0.5 -0.469697 -0.348485
-0.469697 -0.338384 0.5
-0.469697 -0.338384 -0.5
-0.469697 0.5 -0.338384
-0.469697 -0.5 -0.338384
0.5 -0.469697 -0.338384
-0.5 -0.469697 -0.338384
-0.469697 -0.328283 0.5
-0.469697 -0.328283 -0.5
-0.469697 -0.5 -0.328283
0.5 -0.469697 -0.328283
-0.5 -0.469697 -0.328283
-0.469697 -0.318182 0.5
-0.469697 0.5 -0.318182
-0.469697 -0.5 -0.318182
-0.5 -0.469697 -0.318182
-0.469697 -0.308081 0.5
-0.469697 0.5 -0.308081
-0.469697 -0.5 -0.308081
0.5 -0.469697 -0.308081
-0.5 -0.469697 -0.308081
-0.469697 -0.29798 0.5
-0.469697 -0.29798 -0.5
-0.469697 0.5 -0.29798
0.5 -0.469697 -0.29798
-0.5 -0.469697 -0.29798
-0.469697 -0.287879 0.5
-0.469697 -0.287879 -0.5
-0.469697 0.5 -0.287879
-0.469697 -0.5 -0.287879
0.5 -0.469697 -0.287879
-0.5 -0.469697 -0.287879
-0.469697 -0.277778 0.5
-0.469697 -0.277778 -0.5
-0.469697 0.5 -0.277778
-0.469697 -0.5 -0.277778
0.5 -0.469697 -0.277778
-0.5 -0.469697 -0.277778
-0.469697 -0.267677 0.5
-0.469697 -0.267677 -0.5
-0.469697 0.5 -0.267677
-0.469697 -0.5 -0.267677
-0.469697 0.5 -0.257576
-0.469697 -0.5 -0.257576
0.5 -0.469697 -0.257576
-0.5 -0.469697 -0.257576
-0.469697 -0.247475 0.5
-0.469697 -0.247475 -0.5
-0.469697 -0.5 -0.247475
0.5 -0.469697 -0.247475
-0.5 -0.469697 -0.247475
-0.469697 -0.237374 -0.5
-0.469697 0.5 -0.237374
-0.469697 -0.5 -0.237374
0.5 -0.469697 -0.237374
-0.5 -0.469697 -0.237374
-0.469697 -0.227273 0.5
-0.469697 -0.227273 -0.5
-0.469697 0.5 -0.227273
-0.469697 -0.5 -0.227273
0.5 -0.469697 -0.227273
-0.5 -0.469697 -0.227273
-0.469697 -0.217172 0.5
-0.469697 -0.217172 -0.5
-0.469697 0.5 -0.217172
-0.469697 -0.5 -0.217172
0.5 -0.469697 -0.217172
-0.5 -0.469697 -0.217172
-0.469697 0.5 -0.207071
0.5 -0.469697 -0.207071
-0.5 -0.469697 -0.207071
-0.469697 -0.19697 -0.5
-0.469697 0.5 -0.19697
-0.469697 -0.5 -0.19697
-0.469697 -0.186869 -0.5
-0.469697 0.5 -0.186869
-0.469697 -0.5 -0.186869
0.5 -0.469697 -0.186869
-0.5 -0.469697 -0.186869
-0.469697 -0.176768 0.5
-0.469697 -0.176768 -0.5
0.5 -0.469697 -0.176768
-0.5 -0.469697 -0.176768
-0.469697 -0.166667 -0.5
-0.469697 0.5 -0.166667
-0.469697 -0.5 -0.166667
0.5 -0.469697 -0.166667
-0.5 -0.469697 -0.166667
-0.469697 -0.156566 -0.5
-0.469697 -0.5 -0.156566
-0.5 -0.469697 -0.156566
-0.469697 -0.146465 0.5
-0.469697 -0.146465 -0.5
-0.469697 0.5 -0.146465
-0.469697 -0.5 -0.146465
0.5 -0.469697 -0.146465
-0.469697 -0.136364 0.5
-0.469697 -0.5 -0.136364
0.5 -0.469697 -0.136364
-0.469697 -0.126263 0.5
-0.469697 -0.126263 -0.5
-0.469697 -0.5 -0.126263
0.5 -0.469697 -0.126263
-0.5 -0.469697 -0.126263
-0.469697 -0.116162 0.5
-0.469697 -0.5 -0.116162
0.5 -0.469697 -0.116162
-0.469697 -0.106061 -0.5
-0.469697 0.5 -0.106061
-0.469697 -0.5 -0.106061
-0.469697 -0.0959596 -0.5
-0.469697 0.5 -0.0959596
-0.469697 -0.5 -0.0959596
0.5 -0.469697 -0.0959596
-0.469697 -0.0858586 0.5
-0.469697 -0.0858586 -0.5
-0.469697 0.5 -0.0858586
-0.469697 -0.5 -0.0858586
-0.469697 -0.0757576 0.5
-0.469697 -0.0757576 -0.5
-0.469697 0.5 -0.0757576
-0.469697 -0.5 -0.0757576
0.5 -0.469697 -0.0757576
-0.5 -0.469697 -0.0757576
-0.469697 -0.0656566 0.5
-0.469697 -0.0656566 -0.5
-0.469697 0.5 -0.0656566
-0.469697 -0.5 -0.0656566
0.5 -0.469697 -0.0656566
-0.5 -0.469697 -0.0656566
-0.469697 -0.0555556 -0.5
-0.469697 0.5 -0.0555556
-0.469697 -0.5 -0.0555556
0.5 -0.469697 -0.0555556
-0.5 -0.469697 -0.0555556
-0.469697 -0.0454545 0.5
-0.469697 -0.0454545 -0.5
-0.469697 0.5 -0.0454545
0.5 -0.469697 -0.0454545
-0.5 -0.469697 -0.0454545
-0.469697 -0.0353535 0.5
-0.469697 -0.0353535 -0.5
-0.469697 -0.5 -0.0353535
-0.469697 0.5 -0.0252525
-0.469697 -0.5 -0.0252525
-0.5 -0.469697 -0.0252525
-0.469697 -0.0151515 0.5
-0.469697 -0.0151515 -0.5
-0.469697 -0.5 -0.0151515
0.5 -0.469697 -0.0151515
-0.469697 -0.00505051 -0.5
-0.5 -0.469697 -0.00505051
-0.469697 0.00505051 0.5
-0.469697 0.00505051 -0.5
-0.469697 -0.5 0.00505051
-0.5 -0.469697 0.00505051
-0.469697 0.0151515 0.5
-0.469697 -0.5 0.0151515
0.5 -0.469697 0.0151515
-0.469697 0.0252525 0.5
-0.469697 0.0252525 -0.5
-0.469697 -0.5 0.0252525
0.5 -0.469697 0.0252525
-0.469697 0.0353535 0.5
-0.469697 0.5 0.0353535
0.5 -0.469697 0.0353535
-0.5 -0.469697 0.0353535
-0.469697 0.0454545 0.5
-0.469697 0.0454545 -0.5
-0.469697 0.5 0.0454545
-0.469697 0.0555556 0.5
-0.469697 0.0555556 -0.5
-0.469697 -0.5 0.0555556
0.5 -0.469697 0.0555556
-0.469697 0.0656566 0.5
-0.469697 0.5 0.0656566
-0.469697 -0.5 0.0656566
0.5 -0.469697 0.0656566
-0.469697 0.0757576 0.5
-0.469697 0.5 0.0757576
0.5 -0.469697 0.0757576
-0.5 -0.469697 0.0757576
-0.469697 0.0858586 0.5
-0.469697 0.0858586 -0.5
-0.469697 0.5 0.0858586
-0.469697 -0.5 0.0858586
0.5 -0.469697 0.0858586
-0.5 -0.469697 0.0858586
-0.469697 0.0959596 0.5
-0.469697 0.0959596 -0.5
-0.469697 0.5 0.0959596
-0.469697 -0.5 0.0959596
0.5 -0.469697 0.0959596
-0.5 -0.469697 0.0959596
-0.469697 0.106061 0.5
-0.469697 0.5 0.106061
0.5 -0.469697 0.106061
-0.5 -0.469697 0.106061
-0.469697 0.116162 0.5
-0.469697 0.116162 -0.5
-0.469697 0.5 0.116162
0.5 -0.469697 0.116162
-0.5 -0.469697 0.116162
-0.469697 0.126263 0.5
-0.469697 0.5 0.126263
-0.469697 -0.5 0.126263
0.5 -0.469697 0.126263
-0.5 -0.469697 0.126263
-0.469697 0.136364 0.5
-0.469697 0.136364 -0.5
-0.469697 0.5 0.136364
-0.469697 -0.5 0.136364
0.5 -0.469697 0.136364
-0.5 -0.469697 0.136364
-0.469697 0.5 0.146465
-0.469697 -0.5 0.146465
0.5 -0.469697 0.146465
-0.469697 0.156566 0.5
-0.469697 0.156566 -0.5
-0.469697 0.5 0.156566
-0.469697 -0.5 0.156566
0.5 -0.469697 0.156566
-0.469697 0.166667 0.5
-0.469697 0.166667 -0.5
-0.469697 0.5 0.166667
0.5 -0.469697 0.166667
-0.469697 0.176768 0.5
-0.469697 0.176768 -0.5
-0.469697 -0.5 0.176768
0.5 -0.469697 0.176768
-0.5 -0.469697 0.176768
-0.469697 0.186869 0.5
-0.469697 0.186869 -0.5
-0.469697 0.5 0.186869
-0.469697 -0.5 0.186869
0.5 -0.469697 0.186869
-0.5 -0.469697 0.186869
-0.469697 0.19697 0.5
-0.469697 0.19697 -0.5
-0.469697 0.5 0.19697
-0.469697 -0.5 0.19697
0.5 -0.469697 0.19697
-0.5 -0.469697 0.19697
-0.469697 0.207071 0.5
-0.469697 0.207071 -0.5
-0.469697 -0.5 0.207071
0.5 -0.469697 0.207071
-0.5 -0.469697 0.207071
-0.469697 0.217172 0.5
-0.469697 0.217172 -0.5
-0.469697 0.5 0.217172
-0.5 -0.469697 0.217172
-0.469697 0.227273 0.5
-0.469697 0.227273 -0.5
-0.469697 0.5 0.227273
-0.469697 -0.5 0.227273
0.5 -0.469697 0.227273
-0.469697 0.237374 0.5
-0.469697 0.237374 -0.5
-0.469697 0.5 0.237374
-0.469697 -0.5 0.237374
0.5 -0.469697 0.237374
-0.5 -0.469697 0.237374
-0.469697 0.247475 0.5
-0.469697 0.5 0.247475
-0.469697 -0.5 0.247475
0.5 -0.469697 0.247475
-0.5 -0.469697 0.247475
-0.469697 0.257576 0.5
-0.469697 0.257576 -0.5
-0.469697 0.5 0.257576
-0.469697 -0.5 0.257576
0.5 -0.469697 0.257576
-0.5 -0.469697 0.257576
-0.469697 0.267677 -0.5
-0.469697 0.5 0.267677
-0.469697 -0.5 0.267677
-0.5 -0.469697 0.267677
-0.469697 0.277778 0.5
0.5 -0.469697 0.277778
-0.5 -0.469697 0.277778
-0.469697 0.287879 0.5
-0.469697 0.5 0.287879
-0.469697 -0.5 0.287879
0.5 -0.469697 0.287879
-0.469697 0.29798 0.5
-0.469697 0.29798 -0.5
-0.469697 0.5 0.29798
0.5 -0.469697 0.29798
-0.5 -0.469697 0.29798
-0.469697 0.308081 0.5
-0.469697 0.308081 -0.5
-0.469697 0.5 0.308081
-0.469697 -0.5 0.308081
0.5 -0.469697 0.308081
-0.5 -0.469697 0.308081
-0.469697 0.318182 0.5
-0.469697 0.318182 -0.5
-0.469697 0.5 0.318182
0.5 -0.469697 0.318182
-0.469697 0.5 0.328283
0.5 -0.469697 0.328283
-0.5 -0.469697 0.328283
-0.469697 0.338384 0.5
-0.469697 0.338384 -0.5
-0.469697 0.5 0.338384
-0.469697 -0.5 0.338384
-0.5 -0.469697 0.338384
-0.469697 0.348485 0.5
-0.469697 0.348485 -0.5
0.5 -0.469697 0.348485
-0.5 -0.469697 0.348485
-0.469697 0.358586 -0.5
-0.469697 0.5 0.358586
-0.469697 -0.5 0.358586
0.5 -0.469697 0.358586
-0.5 -0.469697 0.358586
-0.469697 0.368687 0.5
-0.469697 0.368687 -0.5
-0.469697 0.5 0.368687
-0.469697 -0.5 0.368687
0.5 -0.469697 0.368687
-0.5 -0.469697 0.368687
-0.469697 0.378788 0.5
-0.469697 0.378788 -0.5
-0.469697 0.5 0.378788
-0.469697 -0.5 0.378788
0.5 -0.469697 0.378788
-0.5 -0.469697 0.378788
-0.469697 0.388889 0.5
-0.469697 0.388889 -0.5
-0.469697 -0.5 0.388889
-0.5 -0.469697 0.388889
-0.469697 0.39899 0.5
-0.469697 0.39899 -0.5
-0.469697 0.5 0.39899
-0.469697 -0.5 0.39899
0.5 -0.469697 0.39899
-0.5 -0.469697 0.39899
-0.469697 0.409091 0.5
-0.469697 0.409091 -0.5
-0.469697 0.5 0.409091
-0.469697 -0.5 0.409091
0.5 -0.469697 0.409091
-0.5 -0.469697 0.409091
-0.469697 0.419192 0.5
-0.469697 0.419192 -0.5
-0.469697 0.5 0.419192
-0.469697 -0.5 0.419192
0.5 -0.469697 0.419192
-0.5 -0.469697 0.419192
-0.469697 0.429293 0.5
-0.469697 0.429293 -0.5
-0.469697 0.5 0.429293
-0.469697 -0.5 0.429293
0.5 -0.469697 0.429293
-0.5 -0.469697 0.429293
-0.469697 0.439394 0.5
-0.469697 0.439394 -0.5
-0.469697 0.5 0.439394
-0.469697 -0.5 0.439394
0.5 -0.469697 0.439394
-0.469697 0.449495 0.5
-0.469697 0.449495 -0.5
-0.469697 0.5 0.449495
-0.469697 -0.5 0.449495
0.5 -0.469697 0.449495
-0.469697 0.459596 0.5
-0.469697 0.459596 -0.5
-0.469697 0.5 0.459596
-0.469697 -0.5 0.459596
0.5 -0.469697 0.459596
-0.5 -0.469697 0.459596
-0.469697 0.469697 -0.5
-0.469697 0.5 0.469697
-0.469697 -0.5 0.469697
0.5 -0.469697 0.469697
-0.5 -0.469697 0.469697
-0.469697 0.479798 0.5
-0.469697 0.479798 -0.5
-0.469697 0.5 0.479798
-0.469697 -0.5 0.479798
0.5 -0.469697 0.479798
-0.5 -0.469697 0.479798
-0.469697 0.489899 0.5
-0.469697 0.489899 -0.5
-0.469697 0.5 0.489899
-0.469697 -0.5 0.489899
0.5 -0.469697 0.489899
-0.5 -0.469697 0.489899
-0.469697 0.5 0.5
-0.469697 0.5 -0.5
-0.469697 0.5 0.5
-0.469697 -0.5 0.5
0.5 -0.469697 0.5
-0.5 -0.469697 0.5
-0.459596 -0.5 0.5
-0.459596 -0.5 -0.5
-0.459596 0.5 -0.5
-0.459596 -0.5 -0.5
0.5 -0.459596 -0.5
-0.5 -0.459596 -0.5
-0.459596 -0.489899 0.5
-0.459596 -0.489899 -0.5
-0.459596 0.5 -0.489899
-0.459596 -0.5 -0.489899
0.5 -0.459596 -0.489899
-0.5 -0.459596 -0.489899
-0.459596 -0.479798 0.5
-0.459596 -0.479798 -0.5
-0.459596 0.5 -0.479798
-0.459596 -0.5 -0.479798
0.5 -0.459596 -0.479798
-0.5 -0.459596 -0.479798
-0.459596 -0.469697 0.5
-0.459596 -0.469697 -0.5
-0.459596 0.5 -0.469697
-0.459596 -0.5 -0.469697
0.5 -0.459596 -0.469697
-0.5 -0.459596 -0.469697
-0.459596 -0.459596 0.5
-0.459596 -0.459596 -0.5
-0.459596 0.5 -0.459596
-0.459596 -0.5 -0.459596
0.5 -0.459596 -0.459596
-0.5 -0.459596 -0.459596
-0.459596 -0.449495 0.5
-0.459596 -0.449495 -0.5
-0.459596 0.5 -0.449495
-0.459596 -0.5 -0.449495
0.5 -0.459596 -0.449495
-0.459596 -0.439394 0.5
-0.459596 -0.439394 -0.5
-0.459596 0.5 -0.439394
-0.459596 -0.5 -0.439394
0.5 -0.459596 -0.439394
-0.5 -0.459596 -0.439394
-0.459596 -0.429293 0.5
-0.459596 -0.429293 -0.5
-0.459596 0.5 -0.429293
-0.459596 -0.5 -0.429293
0.5 -0.459596 -0.429293
-0.5 -0.459596 -0.429293
-0.459596 -0.419192 0.5
-0.459596 -0.419192 -0.5
-0.459596 0.5 -0.419192
-0.459596 -0.5 -0.419192
0.5 -0.459596 -0.419192
-0.5 -0.459596 -0.419192
-0.459596 -0.409091 0.5
-0.459596 -0.409091 -0.5
-0.459596 0.5 -0.409091
-0.459596 -0.5 -0.409091
0.5 -0.459596 -0.409091
-0.5 -0.459596 -0.409091
-0.459596 -0.39899 0.5
-0.459596 -0.39899 -0.5
-0.459596 0.5 -0.39899
-0.459596 -0.5 -0.39899
0.5 -0.459596 -0.39899
-0.5 -0.459596 -0.39899
-0.459596 -0.388889 0.5
-0.459596 -0.388889 -0.5
-0.459596 0.5 -0.388889
-0.459596 -0.5 -0.388889
0.5 -0.459596 -0.388889
-0.5 -0.459596 -0.388889
-0.459596 -0.378788 0.5
-0.459596 -0.378788 -0.5
-0.459596 0.5 -0.378788
0.5 -0.459596 -0.378788
-0.5 -0.459596 -0.378788
-0.459596 -0.368687 0.5
-0.459596 0.5 -0.368687
-0.459596 -0.5 -0.368687
-0.5 -0.459596 -0.368687
-0.459596 -0.358586 0.5
-0.459596 0.5 -0.358586
-0.459596 -0.5 -0.358586
0.5 -0.459596 -0.358586
-0.5 -0.459596 -0.358586
-0.459596 -0.348485 0.5
-0.459596 -0.348485 -0.5
-0.459596 -0.5 -0.348485
0.5 -0.459596 -0.348485
-0.5 -0.459596 -0.348485
-0.459596 -0.338384 0.5
-0.459596 -0.338384 -0.5
-0.459596 0.5 -0.338384
-0.459596 -0.5 -0.338384
0.5 -0.459596 -0.338384
-0.5 -0.459596 -0.338384
-0.459596 -0.328283 0.5
-0.459596 -0.328283 -0.5
-0.459596 0.5 -0.328283
-0.459596 -0.5 -0.328283
0.5 -0.459596 -0.328283
-0.5 -0.459596 -0.328283
-0.459596 -0.318182 -0.5
-0.459596 0.5 -0.318182
-0.459596 -0.5 -0.318182
0.5 -0.459596 -0.318182
-0.459596 -0.308081 0.5
-0.459596 -0.308081 -0.5
-0.459596 0.5 -0.308081
-0.459596 -0.5 -0.308081
0.5 -0.459596 -0.308081
-0.5 -0.459596 -0.308081
-0.459596 -0.29798 0.5
-0.459596 -0.5 -0.29798
0.5 -0.459596 -0.29798
-0.5 -0.459596 -0.29798
-0.459596 -0.287879 0.5
-0.459596 -0.287879 -0.5
-0.459596 0.5 -0.287879
-0.459596 -0.5 -0.287879
0.5 -0.459596 -0.287879
-0.5 -0.459596 -0.287879
-0.459596 -0.277778 0.5
-0.459596 -0.277778 -0.5
-0.459596 0.5 -0.277778
-0.459596 -0.5 -0.277778
0.5 -0.459596 -0.277778
-0.5 -0.459596 -0.277778
-0.459596 -0.267677 0.5
-0.459596 -0.267677 -0.5
-0.459596 0.5 -0.267677
-0.459596 -0.5 -0.267677
-0.459596 -0.257576 -0.5
-0.459596 -0.5 -0.257576
0.5 -0.459596 -0.257576
-0.5 -0.459596 -0.257576
-0.459596 -0.247475 0.5
0.5 -0.459596 -0.247475
-0.5 -0.459596 -0.247475
-0.459596 -0.237374 0.5
-0.459596 -0.237374 -0.5
-0.459596 0.5 -0.237374
-0.459596 -0.5 -0.237374
0.5 -0.459596 -0.237374
-0.5 -0.459596 -0.237374
-0.459596 -0.227273 0.5
-0.459596 -0.227273 -0.5
-0.459596 0.5 -0.227273
-0.459596 -0.5 -0.227273
-0.5 -0.459596 -0.227273
-0.459596 -0.217172 0.5
-0.459596 -0.217172 -0.5
-0.459596 -0.5 -0.217172
0.5 -0.459596 -0.217172
-0.5 -0.459596 -0.217172
-0.459596 -0.207071 0.5
-0.459596 -0.207071 -0.5
-0.459596 -0.5 -0.207071
0.5 -0.459596 -0.207071
-0.5 -0.459596 -0.207071
-0.459596 -0.19697 0.5
-0.459596 -0.19697 -0.5
-0.459596 0.5 -0.19697
-0.459596 -0.5 -0.19697
0.5 -0.459596 -0.19697
-0.5 -0.459596 -0.19697
-0.459596 -0.186869 -0.5
-0.459596 0.5 -0.186869
-0.459596 -0.5 -0.186869
0.5 -0.459596 -0.186869
-0.5 -0.459596 -0.186869
-0.459596 -0.176768 0.5
-0.459596 0.5 -0.176768
-0.459596 -0.5 -0.176768
0.5 -0.459596 -0.176768
-0.5 -0.459596 -0.176768
-0.459596 0.5 -0.166667
-0.459596 -0.5 -0.166667
0.5 -0.459596 -0.166667
-0.459596 -0.156566 0.5
-0.459596 -0.156566 -0.5
-0.459596 0.5 -0.156566
-0.459596 -0.5 -0.156566
0.5 -0.459596 -0.156566
-0.5 -0.459596 -0.156566
-0.459596 -0.146465 0.5
-0.459596 -0.146465 -0.5
-0.459596 0.5 -0.146465
-0.459596 0.5 -0.136364
-0.459596 -0.5 -0.136364
0.5 -0.459596 -0.136364
-0.459596 -0.126263 0.5
-0.459596 0.5 -0.126263
0.5 -0.459596 -0.126263
-0.459596 -0.116162 -0.5
-0.459596 0.5 -0.116162
0.5 -0.459596 -0.116162
-0.459596 -0.106061 0.5
-0.459596 -0.106061 -0.5
-0.459596 -0.5 -0.106061
0.5 -0.459596 -0.106061
0.5 -0.459596 -0.0959596
-0.5 -0.459596 -0.0959596
-0.459596 0.5 -0.0858586
-0.459596 -0.5 -0.0858586
0.5 -0.459596 -0.0858586
-0.5 -0.459596 -0.0858586
-0.459596 -0.0757576 0.5
0.5 -0.459596 -0.0757576
-0.5 -0.459596 -0.0757576
-0.459596 -0.0656566 0.5
-0.459596 -0.0656566 -0.5
-0.459596 0.5 -0.0656566
-0.459596 -0.5 -0.0656566
0.5 -0.459596 -0.0656566
-0.5 -0.459596 -0.0656566
-0.459596 -0.0555556 0.5
-0.459596 0.5 -0.0555556
0.5 -0.459596 -0.0555556
-0.5 -0.459596 -0.0555556
-0.459596 0.5 -0.0454545
-0.459596 -0.5 -0.0454545
0.5 -0.459596 -0.0454545
-0.459596 -0.0353535 0.5
-0.459596 -0.0353535 -0.5
-0.459596 0.5 -0.0353535
0.5 -0.459596 -0.0353535
-0.5 -0.459596 -0.0353535
-0.459596 -0.0252525 0.5
-0.459596 -0.0252525 -0.5
-0.5 -0.459596 -0.0252525
-0.459596 -0.0151515 0.5
-0.459596 -0.0151515 -0.5
-0.459596 0.5 -0.0151515
-0.459596 -0.5 -0.0151515
0.5 -0.459596 -0.0151515
-0.5 -0.459596 -0.0151515
-0.459596 -0.00505051 -0.5
-0.459596 0.00505051 -0.5
0.5 -0.459596 0.00505051
-0.5 -0.459596 0.0151515
-0.459596 0.0252525 -0.5
-0.459596 0.5 0.0252525
-0.459596 -0.5 0.0252525
0.5 -0.459596 0.0252525
-0.459596 0.0353535 0.5
-0.459596 -0.5 0.0353535
0.5 -0.459596 0.0353535
-0.459596 0.0454545 0.5
-0.459596 0.5 0.0454545
-0.459596 -0.5 0.0454545
0.5 -0.459596 0.0454545
-0.459596 0.0555556 0.5
-0.459596 0.0555556 -0.5
-0.459596 0.5 0.0555556
-0.459596 -0.5 0.0555556
0.5 -0.459596 0.0555556
-0.5 -0.459596 0.0555556
-0.459596 -0.5 0.0656566
0.5 -0.459596 0.0656566
-0.459596 0.0757576 -0.5
-0.459596 0.5 0.0757576
-0.459596 -0.5 0.0757576
-0.5 -0.459596 0.0757576
-0.459596 0.0858586 -0.5
-0.459596 0.5 0.0858586
-0.459596 -0.5 0.0858586
-0.5 -0.459596 0.0858586
-0.459596 0.5 0.0959596
0.5 -0.459596 0.0959596
-0.5 -0.459596 0.0959596
-0.459596 0.106061 0.5
-0.459596 -0.5 0.106061
0.5 -0.459596 0.106061
-0.459596 0.116162 0.5
-0.459596 0.5 0.116162
-0.459596 -0.5 0.116162
-0.5 -0.459596 0.116162
-0.459596 0.126263 -0.5
0.5 -0.459596 0.126263
-0.5 -0.459596 0.126263
-0.459596 0.136364 0.5
-0.459596 0.136364 -0.5
-0.459596 0.5 0.136364
-0.459596 -0.5 0.136364
0.5 -0.459596 0.136364
-0.5 -0.459596 0.136364
-0.459596 0.146465 0.5
-0.459596 0.146465 -0.5
-0.459596 0.5 0.146465
-0.459596 -0.5 0.146465
-0.459596 0.156566 0.5
-0.459596 0.156566 -0.5
-0.459596 0.5 0.156566
-0.459596 -0.5 0.156566
-0.5 -0.459596 0.156566
-0.459596 0.166667 0.5
-0.459596 0.166667 -0.5
0.5 -0.459596 0.166667
-0.5 -0.459596 0.166667
-0.459596 0.176768 0.5
-0.459596 0.176768 -0.5
-0.459596 0.5 0.176768
-0.459596 -0.5 0.176768
0.5 -0.459596 0.176768
-0.459596 0.186869 0.5
-0.459596 0.186869 -0.5
0.5 -0.459596 0.186869
-0.5 -0.459596 0.186869
-0.459596 0.19697 -0.5
-0.459596 0.5 0.19697
0.5 -0.459596 0.19697
-0.459596 0.207071 0.5
-0.459596 0.5 0.207071
-0.459596 -0.5 0.207071
-0.5 -0.459596 0.207071
-0.459596 0.217172 0.5
-0.459596 0.217172 -0.5
-0.459596 0.5 0.217172
-0.459596 -0.5 0.217172
-0.5 -0.459596 0.217172
-0.459596 0.227273 -0.5
-0.459596 0.5 0.227273
-0.5 -0.459596 0.227273
-0.459596 0.237374 0.5
-0.459596 0.237374 -0.5
-0.459596 -0.5 0.237374
0.5 -0.459596 0.237374
-0.5 -0.459596 0.237374
-0.459596 0.247475 0.5
-0.459596 -0.5 0.247475
0.5 -0.459596 0.247475
0.5 -0.459596 0.257576
-0.459596 0.267677 0.5
-0.459596 0.267677 -0.5
-0.459596 0.5 0.267677
0.5 -0.459596 0.267677
-0.5 -0.459596 0.267677
-0.459596 0.277778 0.5
-0.459596 0.277778 -0.5
-0.459596 -0.5 0.277778
0.5 -0.459596 0.277778
-0.5 -0.459596 0.277778
-0.459596 0.287879 0.5
-0.459596 0.5 0.287879
-0.459596 -0.5 0.287879
0.5 -0.459596 0.287879
-0.5 -0.459596 0.287879
-0.459596 0.29798 0.5
-0.459596 0.29798 -0.5
-0.459596 0.5 0.29798
-0.459596 -0.5 0.29798
0.5 -0.459596 0.29798
-0.5 -0.459596 0.29798
-0.459596 0.308081 0.5
-0.459596 0.308081 -0.5
-0.459596 0.5 0.308081
0.5 -0.459596 0.308081
-0.459596 0.318182 0.5
-0.459596 0.5 0.318182
-0.459596 -0.5 0.318182
0.5 -0.459596 0.318182
-0.5 -0.459596 0.318182
-0.459596 0.328283 -0.5
-0.459596 0.5 0.328283
-0.459596 -0.5 0.328283
0.5 -0.459596 0.328283
-0.5 -0.459596 0.328283
-0.459596 0.338384 0.5
-0.459596 0.338384 -0.5
-0.459596 0.5 0.338384
-0.459596 -0.5 0.338384
0.5 -0.459596 0.338384
-0.5 -0.459596 0.338384
-0.459596 0.348485 0.5
-0.459596 0.348485 -0.5
0.5 -0.459596 0.348485
-0.5 -0.459596 0.348485
-0.459596 0.358586 0.5
-0.459596 0.358586 -0.5
-0.459596 0.5 0.358586
-0.459596 -0.5 0.358586
0.5 -0.459596 0.358586
-0.5 -0.459596 0.358586
-0.459596 0.368687 0.5
-0.459596 0.368687 -0.5
-0.459596 0.5 0.368687
-0.459596 -0.5 0.368687
0.5 -0.459596 0.368687
-0.5 -0.459596 0.368687
-0.459596 0.378788 0.5
-0.459596 0.378788 -0.5
-0.459596 0.5 0.378788
-0.459596 -0.5 0.378788
0.5 -0.459596 0.378788
-0.5 -0.459596 0.378788
-0.459596 0.388889 0.5
-0.459596 0.388889 -0.5
-0.459596 0.5 0.388889
-0.459596 -0.5 0.388889
0.5 -0.459596 0.388889
-0.5 -0.459596 0.388889
-0.459596 0.39899 0.5
-0.459596 0.39899 -0.5
-0.459596 0.5 0.39899
-0.459596 -0.5 0.39899
0.5 -0.459596 0.39899
-0.5 -0.459596 0.39899
-0.459596 0.409091 0.5
-0.459596 0.409091 -0.5
-0.459596 0.5 0.409091
-0.459596 -0.5 0.409091
0.5 -0.459596 0.409091
-0.5 -0.459596 0.409091
-0.459596 0.419192 0.5
-0.459596 0.419192 -0.5
-0.459596 0.5 0.419192
-0.459596 -0.5 0.419192
0.5 -0.459596 0.419192
-0.5 -0.459596 0.419192
-0.459596 0.429293 0.5
-0.459596 0.429293 -0.5
-0.459596 0.5 0.429293
-0.459596 -0.5 0.429293
0.5 -0.459596 0.429293
-0.5 -0.459596 0.429293
-0.459596 0.439394 0.5
-0.459596 0.439394 -0.5
0.5 -0.459596 0.439394
-0.5 -0.459596 0.439394
-0.459596 0.449495 0.5
-0.459596 0.449495 -0.5
-0.459596 0.5 0.449495
-0.459596 -0.5 0.449495
0.5 -0.459596 0.449495
-0.5 -0.459596 0.449495
-0.459596 0.459596 0.5
-0.459596 0.459596 -0.5
-0.459596 0.5 0.459596
-0.459596 -0.5 0.459596
0.5 -0.459596 0.459596
-0.5 -0.459596 0.459596
-0.459596 0.469697 0.5
-0.459596 0.5 0.469697
-0.459596 -0.5 0.469697
0.5 -0.459596 0.469697
-0.5 -0.459596 0.469697
-0.459596 0.479798 0.5
-0.459596 0.479798 -0.5
-0.459596 0.5 0.479798
-0.459596 -0.5 0.479798
0.5 -0.459596 0.479798
-0.5 -0.459596 0.479798
-0.459596 0.489899 0.5
-0.459596 0.489899 -0.5
-0.459596 0.5 0.489899
-0.459596 -0.5 0.489899
0.5 -0.459596 0.489899
-0.5 -0.459596 0.489899
-0.459596 0.5 0.5
-0.459596 0.5 -0.5
-0.459596 0.5 0.5
-0.459596 -0.5 0.5
0.5 -0.459596 0.5
-0.5 -0.459596 0.5
-0.449495 -0.5 0.5
-0.449495 -0.5 -0.5
-0.449495 0.5 -0.5
-0.449495 -0.5 -0.5
0.5 -0.449495 -0.5
-0.5 -0.449495 -0.5
-0.449495 -0.489899 0.5
-0.449495 -0.489899 -0.5
-0.449495 0.5 -0.489899
-0.449495 -0.5 -0.489899
0.5 -0.449495 -0.489899
-0.5 -0.449495 -0.489899
-0.449495 -0.479798 0.5
-0.449495 -0.479798 -0.5
-0.449495 0.5 -0.479798
-0.449495 -0.5 -0.479798
0.5 -0.449495 -0.479798
-0.5 -0.449495 -0.479798
-0.449495 -0.469697 0.5
-0.449495 -0.469697 -0.5
-0.449495 0.5 -0.469697
-0.449495 -0.5 -0.469697
0.5 -0.449495 -0.469697
-0.5 -0.449495 -0.469697
-0.449495 -0.459596 0.5
-0.449495 -0.459596 -0.5
-0.449495 0.5 -0.459596
-0.449495 -0.5 -0.459596
-0.5 -0.449495 -0.459596
-0.449495 -0.449495 0.5
-0.449495 -0.449495 -0.5
-0.449495 0.5 -0.449495
-0.449495 -0.5 -0.449495
0.5 -0.449495 -0.449495
-0.5 -0.449495 -0.449495
-0.449495 -0.439394 0.5
-0.449495 -0.439394 -0.5
-0.449495 0.5 -0.439394
-0.449495 -0.5 -0.439394
0.5 -0.449495 -0.439394
-0.5 -0.449495 -0.439394
-0.449495 -0.429293 0.5
-0.449495 -0.429293 -0.5
-0.449495 0.5 -0.429293
-0.449495 -0.5 -0.429293
0.5 -0.449495 -0.429293
-0.5 -0.449495 -0.429293
-0.449495 -0.419192 0.5
-0.449495 -0.419192 -0.5
-0.449495 0.5 -0.419192
-0.449495 -0.5 -0.419192
0.5 -0.449495 -0.419192
-0.5 -0.449495 -0.419192
-0.449495 -0.409091 0.5
-0.449495 -0.409091 -0.5
-0.449495 -0.5 -0.409091
0.5 -0.449495 -0.409091
-0.5 -0.449495 -0.409091
-0.449495 -0.39899 0.5
-0.449495 -0.39899 -0.5
-0.449495 0.5 -0.39899
-0.449495 -0.5 -0.39899
0.5 -0.449495 -0.39899
-0.5 -0.449495 -0.39899
-0.449495 -0.388889 0.5
-0.449495 -0.388889 -0.5
-0.449495 0.5 -0.388889
-0.449495 -0.5 -0.388889
-0.5 -0.449495 -0.388889
-0.449495 -0.378788 0.5
-0.449495 -0.378788 -0.5
-0.449495 0.5 -0.378788
-0.449495 -0.5 -0.378788
0.5 -0.449495 -0.378788
-0.5 -0.449495 -0.378788
-0.449495 -0.368687 0.5
-0.449495 -0.368687 -0.5
-0.449495 0.5 -0.368687
-0.449495 -0.5 -0.368687
0.5 -0.449495 -0.368687
-0.5 -0.449495 -0.368687
-0.449495 -0.358586 -0.5
-0.449495 0.5 -0.358586
-0.449495 -0.5 -0.358586
0.5 -0.449495 -0.358586
-0.449495 -0.348485 0.5
-0.449495 -0.348485 -0.5
-0.449495 0.5 -0.348485
-0.449495 -0.5 -0.348485
-0.5 -0.449495 -0.348485
-0.449495 -0.338384 0.5
-0.449495 0.5 -0.338384
0.5 -0.449495 -0.338384
-0.5 -0.449495 -0.338384
0.5 -0.449495 -0.328283
-0.5 -0.449495 -0.328283
-0.449495 -0.318182 0.5
-0.449495 -0.318182 -0.5
-0.449495 0.5 -0.318182
-0.449495 -0.5 -0.318182
0.5 -0.449495 -0.318182
-0.449495 -0.308081 0.5
-0.449495 -0.308081 -0.5
-0.449495 0.5 -0.308081
-0.5 -0.449495 -0.308081
-0.449495 -0.29798 0.5
-0.449495 -0.29798 -0.5
-0.449495 0.5 -0.29798
-0.449495 -0.5 -0.29798
0.5 -0.449495 -0.29798
-0.449495 -0.287879 -0.5
-0.449495 0.5 -0.287879
-0.449495 -0.5 -0.287879
-0.5 -0.449495 -0.287879
-0.449495 -0.277778 0.5
-0.449495 -0.277778 -0.5
-0.449495 0.5 -0.277778
-0.449495 -0.5 -0.277778
0.5 -0.449495 -0.277778
-0.5 -0.449495 -0.277778
-0.449495 -0.267677 0.5
-0.449495 -0.267677 -0.5
-0.449495 0.5 -0.267677
-0.449495 -0.5 -0.267677
0.5 -0.449495 -0.267677
-0.5 -0.449495 -0.267677
-0.449495 -0.257576 -0.5
-0.449495 0.5 -0.257576
-0.449495 -0.5 -0.257576
0.5 -0.449495 -0.257576
-0.449495 -0.247475 0.5
